-0.03913251526697837	-0.17848830443181452	-0.07621048714726897	-0.1882022497407903	-0.5288810000432707	-0.4985211866751085	-0.7208848830745981	-0.7798693979514433	-0.8927818908494304	-0.8705566090752614	-0.9979140204050121	-1.123502190165016	-1.3088719973945262	-1.3507084716855953	-1.5086041183480936	-1.4756768727076193	-1.6529100701825847	-1.870616406777928	-1.8044197536959437	-1.7420415467178534	-1.828791814732781	-2.1722167457229284	-2.2613390586138955	-2.244466671366906	-2.3717246094308218	-2.5187546558784812	-2.6551894358273938	-2.8761907238153155	-2.972182762535991	-2.889207880462005	-2.9717373618976923	-3.2459308604269945	-3.1682886562828942	-3.2771586992604806	-3.4418460452498545	-3.333736454994716	-3.6933654538894696	-3.513813948093781	-3.9512893918922924	-3.9226791361548665	-4.022965081894356	-4.0802559572355985	-4.35765181838445	-4.474722117911607	-4.39719939242164	-4.465285155194898	-4.80390253659875	-4.863146875124194	-4.9120394057690415	-4.875584064840804
0.16095139907570488	-0.05375508506115546	-0.2266725004794234	-0.24137086522587947	-0.36982886561540784	-0.29925024278535983	-0.6388327929266101	-0.7805335797240835	-0.9765462283300373	-0.8228149018668557	-1.1234509023687098	-1.110074831945282	-1.0210103821451366	-1.364878261621209	-1.3818068956962646	-1.3749795718988074	-1.742415892576485	-1.8178005571434572	-1.7200609431467773	-2.0157422065298563	-2.1336184615982923	-1.9073884181117784	-2.5055627131248004	-2.211237783896752	-2.4347157408109146	-2.5352557771365536	-2.7025384735963525	-2.6754411705752803	-3.0183308020539017	-2.9332810445105792	-2.9050274070403193	-3.2143909600080596	-3.37689790163266	-3.3829371182973844	-3.317079275082348	-3.464006505290114	-3.6510979265122745	-3.799748457916511	-3.8432834572380123	-4.167745260084571	-3.9793352031728775	-3.975744240943852	-4.330143313725436	-4.428876652826971	-4.449654595548504	-4.529167776894574	-4.5994791396098	-4.751754013939	-4.840928205394298	-4.9773293957853335
-0.013010529881344596	0.08619629961802994	-0.31662201489324915	-0.2787158134051389	-0.4646752449136903	-0.41115340473758655	-0.7336268112175277	-0.6616303015653573	-0.7508173280718815	-1.0522707237539182	-1.1151202402476295	-1.1862303488997534	-1.222466576901998	-1.381227744844426	-1.247256789296999	-1.512870787739012	-1.4243846541283287	-1.8226885281047314	-1.9094856612312923	-2.04697010806842	-1.8091494531048888	-2.1022901653722954	-2.2009361440740807	-2.2734362438835287	-2.3409033007209215	-2.548013584264352	-2.682817295146349	-2.437465614933415	-2.7783985783790444	-3.0907289905804376	-3.1663436751077296	-3.191474904760061	-2.97394480267143	-3.413184428207145	-3.7408344451401105	-3.604952435204665	-3.635989164127048	-3.6707438855435948	-3.966958687185913	-4.168458375914468	-3.9406559709738063	-4.18568417368478	-4.3508345972572675	-4.399670954547831	-4.570079765404554	-4.61021837317529	-4.912308309918915	-4.697954996237668	-4.930698020179646	-4.922667611921996
0.0445998943929615	-0.10658626837315553	-0.2563851556568359	-0.18412550402398598	-0.38351993923493055	-0.5799255065886814	-0.7826982531885307	-0.7189473188799842	-1.0234682275411346	-0.893304487248268	-1.146610501189601	-1.13730889780759	-1.2123765336118373	-1.6660740576418853	-1.561925453771445	-1.6103150001074944	-1.6484691149223667	-1.8216108089633083	-1.7066181290583295	-1.920176387589851	-2.0509008163065183	-2.0019066944209625	-2.193517298238897	-2.2423854204395006	-2.412507975078516	-2.4575655311974134	-2.7482729567641964	-2.6922008300456373	-3.016321855136136	-2.8864645968817473	-2.9081625082696965	-3.0549085233823297	-3.3021095687961113	-3.179810429892607	-3.5496781360992453	-3.6625332250616007	-3.6898430605222505	-3.9289979373082766	-3.778325055287526	-3.8573018672045425	-4.019366957199305	-4.369511428830709	-4.363613934411816	-4.448208446443528	-4.431452541062233	-4.532299832334606	-4.865067899391508	-4.744301138772612	-4.96991013561097	-5.081817594464139
-0.0711644537936359	-0.06095122971711032	-0.06076567055208715	-0.15037359023682095	-0.5096830754956247	-0.6028711389536922	-0.7201564957025248	-0.691423210413632	-0.6791382815011066	-1.0075686327228548	-1.1726443889384666	-1.1036565152743578	-1.322279541885685	-1.2524843426496015	-1.3968460026133944	-1.4760547944142224	-1.4657046211017823	-1.7270125896994708	-1.9549014526157868	-2.086751087554329	-2.093780417268314	-2.192874483902569	-2.2866058692101436	-2.37271931769791	-2.2786726195025326	-2.4885453514287637	-2.608708295399517	-2.8605318956550887	-3.0560388746171405	-3.030207166277542	-3.1225759438029996	-3.152188725974671	-3.14500304656287	-3.2276476303165262	-3.3970514424373035	-3.511641912905673	-3.6159768333291713	-3.7913652107230287	-4.079288319698901	-3.8262995275127207	-4.156918115836527	-4.240176279378051	-4.188472014458722	-4.144152241749033	-4.517112355441379	-4.515681808034558	-4.647630353668106	-4.891947525473849	-5.009547914504113	-4.861983533730775
0.0985708445335988	-0.1640918964834452	-0.14413506400021134	-0.3195161526065996	-0.4778069384049153	-0.5140339420208523	-0.7213310547300076	-0.8080141312146412	-0.7121857988494686	-0.9013196764247371	-1.1626319756500003	-1.1270005614146168	-1.3046889731469002	-1.421643829844175	-1.3765893262899858	-1.5296659763599558	-1.535797825182586	-1.6512592951704932	-1.8096997865152735	-1.8925285735182482	-2.0296795912516523	-2.154875505731474	-2.2444680515854967	-2.403756435926436	-2.3892046707686547	-2.5605016476441866	-2.575481451741266	-2.751298751880551	-2.9256252665679736	-2.7954878744051306	-3.0804404046713976	-3.2089582635306595	-3.2550246787750976	-3.226254152435808	-3.246315093038732	-3.699042504477646	-3.635194782912575	-3.9193570953301125	-3.821161508498446	-3.968921050995426	-4.107756530559379	-4.177299203256194	-4.328859111493298	-4.31905328981941	-4.575752837211748	-4.632608271164105	-4.898335562808657	-4.933002603961137	-4.810335027206439	-5.075266359448906
0.1245176065272273	0.12531505799285683	-0.1786413303871589	-0.36499781165699174	-0.5349781473838556	-0.5324534815784683	-0.5553337264983974	-0.77867664319536	-0.8769604061233836	-1.0140404969959516	-0.9897830796192543	-0.9223417833410953	-1.3521331861097003	-1.3474168400617923	-1.3447487938480203	-1.5683950078472664	-1.732063929778443	-1.6406047126573466	-1.729519232703941	-2.054766827179044	-1.8158313001912738	-2.1629029663481143	-2.1227304983926776	-2.2809310553125255	-2.53302247006547	-2.5162524787616616	-2.6821262861417097	-2.7896517191307915	-3.005039945373068	-2.9536550547367835	-3.135261704342515	-3.1945420603498746	-3.2347583450739066	-3.4207714731494643	-3.3047659366016613	-3.614542302139919	-3.7455174681964523	-3.9312666674208763	-3.786252981549211	-3.840983043413366	-4.126446658105703	-4.021915772642899	-4.336658037131278	-4.462897937786925	-4.423566894529379	-4.477365556011447	-4.6871626570423315	-4.767863203635516	-4.672568771371422	-4.998553888517557
0.08478082656338376	-0.27478976892300194	-0.18945907198483575	-0.481279705658752	-0.5252252998348662	-0.5590606088453196	-0.7407857279918576	-0.6218438667655884	-1.0298392003050671	-1.0038450977951185	-1.2410079299551042	-1.1091804808451242	-1.1866541286805448	-1.2977424033694938	-1.544955732444627	-1.567311650954263	-1.5906804647598973	-1.8324453753788394	-1.9553932303408568	-1.842342620592768	-1.976265001436599	-2.0772834647588234	-2.3122495260867577	-2.4923699054801522	-2.2661750946412633	-2.595347116200619	-2.5087738206036545	-2.6875140365301693	-3.026544107950753	-2.7867318029575947	-3.1306230755320157	-3.074296975732025	-3.455349368847107	-3.2394816888775644	-3.4226030902969877	-3.7250377593691164	-3.7473472160831096	-3.768156891062825	-3.917221210047913	-4.111391693131901	-3.9905410420595957	-4.2620356143450895	-4.418408339949049	-4.316661036469673	-4.554834864878106	-4.637288768591097	-4.780858229835759	-4.943484364692668	-4.9459317025755904	-4.935273687207472
-0.03595974483014892	-0.2627788210534199	-0.10091698686282037	-0.2936788295185332	-0.4175077385359725	-0.3876354738747222	-0.6236390129819069	-0.6343378682419514	-0.848394649842695	-1.0023485829995014	-1.1167157256001865	-1.0976480186191298	-1.1397022338670642	-1.2094820199418297	-1.4437710180375687	-1.3113867587654653	-1.5584187685058528	-1.7536558297611387	-1.8618234367179611	-1.8887791183973714	-2.0331406927005413	-2.1158544049707366	-2.322976680295987	-2.2755040260320336	-2.5207136486894206	-2.56800628393158	-2.7568944424838433	-2.7257265660291536	-2.9508074460718543	-2.915918248532239	-2.956725389409889	-3.19905843111511	-3.3901880123348755	-3.3711693762512995	-3.469568076238814	-3.533026650080109	-3.7497234185771915	-3.681360974687054	-3.871723538183155	-3.993269332546008	-4.199560424613928	-4.300534080468941	-4.40162685158802	-4.370434536383622	-4.537513121605481	-4.694618063646534	-4.655395084579342	-4.713138600562537	-5.007109000635784	-5.200417101030216
-0.012499482713758267	-0.12603348908574333	-0.36446289947799027	-0.2449998369404573	-0.6178633136773407	-0.5058107860483253	-0.694640631331634	-0.651649872267836	-0.9035569982934701	-0.925593585374712	-1.085645013829351	-1.0381078375136739	-1.3006396712705794	-1.3357725728612828	-1.3772240522639914	-1.5277418502461138	-1.6767767111130536	-1.7811625309345602	-1.9300221288019146	-1.9546340551475168	-2.1828148126852427	-2.089435308009097	-2.3263179870557726	-2.459056539564407	-2.330921996732427	-2.7027972441152177	-2.6867839346143816	-2.918070441064655	-2.9987587846461032	-2.908147827211789	-2.965254186595624	-3.2115155079760735	-3.3086248506193643	-3.266928361430711	-3.450786736733343	-3.619941437963294	-3.5998920217685275	-3.820236011229098	-4.083644683259518	-4.116167531651119	-4.16123937519462	-4.095547463193622	-4.267028935453193	-4.5876339161921145	-4.697059117313044	-4.507052775566819	-4.603287625953985	-4.731546848951962	-5.043531484079959	-4.805202710773944
0.1634208025274742	-0.07763505316573474	-0.09646030359817596	-0.21536670672996294	-0.4340804699176266	-0.4454746732978793	-0.7589614212541052	-0.7414710269403867	-0.8360153664337371	-0.7527057638288845	-1.2164482633929363	-1.2621697797973521	-1.3037201144002788	-1.149702035000945	-1.4370627063832986	-1.6809978782488861	-1.6282440398302884	-1.733584105036081	-1.8371226087881773	-2.0568362751028433	-1.9196640266219227	-2.2008626605388093	-2.253425227053659	-2.4620191711510913	-2.493053952383274	-2.445893551776664	-2.8123258803182947	-2.7306800985226953	-2.9362365628105307	-2.878063642519406	-3.0928789271354606	-3.0467903227039397	-3.1782499357354856	-3.51904988170781	-3.462361570689357	-3.6451825710416026	-3.824137559061133	-3.7518173708753846	-3.865450839349303	-3.9737531057818467	-4.088295608680757	-4.16112021590657	-4.097902141358785	-4.397694561022535	-4.49739722867657	-4.515035365893148	-4.6788041275469165	-4.851827689632105	-4.931453396028749	-5.052443477371902
-0.078303292586984	-0.19327680042653023	-0.13556009223117907	-0.3861891454732669	-0.26951993822011744	-0.6875421492402858	-0.6694070566228666	-0.6079782672510522	-0.7573984136293797	-1.0053201459086867	-0.9483688853726653	-1.055476534799782	-1.2164235840823583	-1.302608157727113	-1.4058822604133319	-1.29899012059946	-1.4630914972208515	-1.817661645696861	-2.002868096658472	-2.0340975618166883	-2.048823332741497	-2.04788737658995	-2.2653870301099404	-2.3899187484640088	-2.6580326671896075	-2.5754185444102737	-2.61004083449763	-2.784081860745539	-2.839207343731366	-2.8866266335734165	-3.1215382832371374	-3.201369456415916	-3.1810862101759736	-3.328387939516456	-3.5917435897832837	-3.638954386083296	-3.502348013421702	-3.7729150230535713	-3.8714838132690046	-3.9210917538108276	-4.087411152998723	-4.164071795883488	-4.421139171148868	-4.463059939932018	-4.580691988334058	-4.521265576546559	-4.792524625111103	-4.968150825626315	-4.873012342513314	-4.933492061020439
-0.021549814871017994	0.020525706014353648	-0.06650975457770561	-0.4093483147106347	-0.3850781406992746	-0.5677134884854026	-0.5033034985135065	-0.8151559281934398	-0.7648015353605099	-0.8013307120782415	-1.093961682715094	-1.1079437688002516	-1.1936378862249726	-1.3057390390957542	-1.505765164972126	-1.4358024183802423	-1.601129691320864	-1.780869133389287	-1.7755800698564166	-2.043459457130087	-2.0938204877276885	-2.052872294166033	-2.214156044086157	-2.340826155409178	-2.382515181212919	-2.6337178376838777	-2.637294081948953	-2.7949806356402442	-2.7430899298116724	-3.0709212919496305	-3.2071023773998273	-3.165134425487476	-3.348517679680418	-3.315859964266473	-3.5827183960360913	-3.4765428486180032	-3.6335981627684895	-3.7694854700110088	-3.85369431751804	-4.046197555784453	-4.141334686172246	-4.260062597725411	-4.179368680008638	-4.570174577737445	-4.432518413915414	-4.757619684979579	-4.903904611592911	-4.825835953262963	-5.021529898974755	-4.9466122306542175
0.05835563649737229	-0.025616741277646765	-0.15097263003720154	-0.4439451196645582	-0.4607394003068005	-0.41818977417850206	-0.6366335800281351	-0.7512062613831143	-0.6193277123998786	-0.9610889004350057	-1.0695612670626993	-1.112183612994327	-1.2686705321910492	-1.309171757709322	-1.5863666586381884	-1.4225686838575393	-1.6662067506259748	-1.781108409760662	-1.7423025931913312	-2.1945796068362893	-2.076300755636348	-2.0691472993764455	-2.42879325499049	-2.261692696135702	-2.416271065640754	-2.690882215392981	-2.631963525263343	-2.6548435463802424	-2.7929539323305637	-2.9572909621779755	-2.9759447692279077	-3.1351654526399853	-3.1386221132890806	-3.26599216086605	-3.5873037244049977	-3.467694261213282	-3.918346647447468	-3.810040344578798	-3.9151312565906866	-3.877626099726729	-4.069690638852791	-4.0992008157130515	-4.248937611265516	-4.3556324073481125	-4.59328432245485	-4.815053576133292	-4.716551131645975	-4.547195782992092	-5.059398262175515	-4.9431736677722915
-0.11112323549680048	0.08387591469316372	-0.3131620430887419	-0.34046051236889247	-0.1957410004471077	-0.25934097765167785	-0.5974756076634351	-0.6579144796950372	-0.7986355583579993	-0.7820051760883837	-0.9498024888546268	-1.0664366733987058	-1.3336618718043631	-1.4358985584152562	-1.3511853821374111	-1.5501350770231157	-1.6541520498091866	-1.6505775724780407	-1.9601725233139595	-1.8366180412967381	-2.0367500204501554	-2.2691480596757425	-2.4363488909229627	-2.1936131280617697	-2.531683773094143	-2.62842786932237	-2.5434542231667794	-2.9077259468930787	-2.8032735280281806	-3.0751211962836162	-3.145315119415418	-3.26811308943364	-3.225249746121738	-3.180768656690443	-3.541927139940295	-3.571924814451661	-3.7427163714854146	-3.8116331456384764	-3.823990785907459	-3.8741606478040613	-4.091220221909609	-3.998789221947713	-4.341363226843961	-4.4285433434440575	-4.289214446054703	-4.68873412440315	-4.585907669584702	-4.737642540806212	-4.883936338847197	-4.888731934266003
-0.08741487002940265	-0.18740323680996818	-0.1712145045468076	-0.344906789224964	-0.5235107259962657	-0.5042562828838238	-0.700737665614215	-0.799684887182065	-0.9848856569864393	-0.9140269223499621	-0.9235049577668184	-1.041745441772305	-1.3205114368276996	-1.4511027704663357	-1.4922704031836858	-1.3210716131959621	-1.5328677090019793	-1.6769013725280455	-1.8280553445215473	-2.0450416737831505	-2.073246024865259	-1.9284427304409046	-2.2411742291532946	-2.2592930444397323	-2.372489002662998	-2.4833612803500866	-2.8427303751791912	-2.9101299743435636	-2.810924052094614	-3.094580596302006	-2.9442329311751143	-3.24067416585676	-3.37857584338044	-3.2317444152598847	-3.5207517589365174	-3.3945615286417503	-3.5921729935302302	-3.784350257288508	-3.878638238199521	-3.8606460997743843	-4.155420043769074	-4.267066776157989	-4.253160218788193	-4.517008832897689	-4.506434243392389	-4.500652552527649	-4.818552889460405	-4.842000254643258	-4.892626770635471	-5.0773994598189605
0.07933772949421283	-0.08330675425607328	-0.2588202588319723	-0.3510295593675783	-0.44064089843542154	-0.6226752890940956	-0.8366883345802965	-0.6490190659573826	-0.6528041833102739	-0.9126844214083377	-0.9331218189032098	-1.1973525271889291	-1.290649384251937	-1.5442233358794648	-1.3973414464437	-1.4314777225455118	-1.6161501126060078	-1.9840439068644764	-1.897109603582809	-2.003383917716504	-2.142631037577657	-2.1068705910741814	-2.156612550091282	-2.403771750377078	-2.345860987787538	-2.4795309587097494	-2.564845673617181	-2.6691032587239736	-2.858978416314362	-2.907758310211666	-3.1663780981247585	-3.027813248412381	-3.2862919677421627	-3.419761924621098	-3.5229376088942854	-3.4249667933394923	-3.656871767046712	-3.8238942342007913	-3.788821073317882	-3.9913347898090037	-4.0264296631920455	-4.236738666825389	-4.160401034935424	-4.431364271525635	-4.4645388272912125	-4.53455232694433	-4.7594432888155715	-4.873413650727005	-5.038634439952569	-5.054303580349504
-0.058017328722873754	-0.07814695830650968	-0.07317686291723183	-0.42508989017688575	-0.42609178417814697	-0.681489483205681	-0.46801309032648997	-0.8235194094378444	-0.8429056255089956	-1.0562826416303028	-1.1566700454821939	-1.138351444222542	-1.0763881139677958	-1.3955177438760378	-1.4144597057565735	-1.4281577201402271	-1.6084140112317267	-1.67741935178214	-1.7859684398593845	-2.092777928252898	-2.159996428241018	-2.0695127386977865	-2.445732179028823	-2.307481665255472	-2.6165967881092564	-2.483878374921553	-2.588251722873719	-2.539568265675108	-3.0062253377731656	-2.958026927807018	-3.023408972038852	-2.963549616975621	-3.22093901553893	-3.4448699735092703	-3.5019262836903726	-3.6046633395390772	-3.8372594018636623	-3.6591830262448197	-3.9516342336985457	-4.074380899741619	-4.139861216952571	-4.239728738967975	-4.3988705670697135	-4.3087443564844525	-4.5371993258576575	-4.705683064953888	-4.650262512318502	-4.6249387394655574	-4.987837663864142	-5.048210551347429
-0.03079704447571377	-0.14176791839051056	-0.1926031652817835	-0.3505599236614746	-0.31738449720246176	-0.39853344951034614	-0.6012626776004544	-0.7906224927939633	-0.8262422588778523	-0.8669493627678188	-1.0948777451638065	-1.0640446812942574	-1.2912834906480941	-1.3475913595965767	-1.2292828073875912	-1.4271405912445354	-1.5832947699947573	-1.6735408482170337	-1.8778583811428378	-1.7344875709942236	-2.065598641597056	-2.1803115821022607	-2.308574387161029	-2.4132588565778974	-2.566612018410119	-2.55591224233535	-2.572906845458227	-2.8055068043503733	-2.8591857113392916	-2.7500929220526116	-3.000046567417026	-3.1197623468438405	-3.243571647802396	-3.500115941677442	-3.5585495055601393	-3.3993280887995567	-3.5956183295947013	-3.983846597140903	-3.888407414279271	-3.860317321003852	-4.204068801433255	-4.03332994880555	-4.402950580850916	-4.4444569655059	-4.520372870147105	-4.632529518217255	-4.688044305159953	-4.913140884564794	-4.886923456411293	-4.951826628183904
0.014342365400450606	-0.2415797604600349	-0.24810725667209985	-0.26690996159300173	-0.25301155762280525	-0.4967028528182192	-0.7270300133879388	-0.6979377752786272	-0.6959824164993995	-0.7689713930024421	-0.971290596998622	-1.0955682830502949	-0.9834217435879254	-1.434714606652791	-1.4611046101152168	-1.6026275660727582	-1.6646321104893667	-1.612391613010958	-1.9650384484785164	-1.9245574480840122	-1.9243204119349209	-2.21241780344927	-2.0850350643467417	-2.3777798888934343	-2.364275172868018	-2.344567218530338	-2.7197723414634307	-2.708168369657545	-2.87711415923691	-2.910369077391715	-2.890754893504142	-3.2882852193462138	-3.2762265733664946	-3.4475871443997437	-3.43299210566674	-3.567212526623247	-3.698415654097956	-3.8303946360479735	-3.770775668190897	-4.06578735127621	-4.021035078347789	-3.981406964392337	-4.278970458624562	-4.2600762944685275	-4.4961455346562795	-4.5340671987034185	-4.6608199342047225	-4.773739427888281	-4.861928569231753	-4.997827784728172
-0.06098170818058771	-0.3206191961738666	-0.36244250469429506	-0.07579048598995028	-0.19777020788903762	-0.3414421614025377	-0.6683290427687385	-0.5130808035868776	-0.8512454360395064	-0.9089926742026793	-1.0862931530731408	-1.097724324935208	-1.272948976302349	-1.220102504038592	-1.4343607626564576	-1.4302879972474556	-1.5477584895058258	-1.699958872999303	-1.8896502141881348	-2.1114239339528353	-2.1385286555142566	-2.154734337528493	-2.1044039906443857	-2.2679573060210427	-2.4670272583497552	-2.5070329593389427	-2.7574994397912636	-2.9282563246386264	-3.168695625530414	-2.8964254712120523	-2.9697674666284364	-3.032756376304338	-3.275006718332489	-3.268050156587254	-3.4061592979556825	-3.6739560369970348	-3.501321694623604	-3.8217466012902284	-3.848259252549812	-3.886804430382047	-4.211058103228868	-4.066229599467847	-4.2531194855329755	-4.518358680231833	-4.3565906523581175	-4.377540218666127	-4.8312831140357275	-4.9174243932821415	-4.798740213765907	-5.048227766736414
0.00964156345257037	-0.02452059808330405	-0.18009212980132563	-0.44808333681650414	-0.4622404751189294	-0.6910787933039279	-0.7749332349616496	-0.8800343685203138	-0.591226934756738	-0.9601567446045014	-1.1660259375106958	-1.2499621007107065	-1.0607479089097462	-1.3337657407560992	-1.450400800472053	-1.493005971043641	-1.6487698647552762	-1.7896131907934894	-1.7874190440168394	-1.804644339131964	-2.1324165884186694	-1.9988114560733776	-2.2311976952460717	-2.24981862514003	-2.519011430984878	-2.574928581258581	-2.7419417927069283	-2.7075791954587074	-3.172014756628469	-3.007914227446393	-3.0216839874687973	-3.432921903119905	-3.276885343544409	-3.4392146167763684	-3.399366256088157	-3.759804211970604	-3.820924004644309	-3.638923290709465	-3.853225747413339	-3.9789721145072985	-4.093312942160515	-4.100603457242009	-4.413302204580343	-4.253008015603337	-4.38532069402593	-4.3391684264537895	-4.80373834509524	-4.7122207394735	-5.027251432773545	-4.904473848704669
-0.025796464390601567	0.055286151098305314	-0.16558371981188652	-0.32685965405106665	-0.13103517877449344	-0.5644393094076612	-0.4872585615773318	-0.8070436112119196	-1.0076094843769643	-0.8345051807970605	-1.0590407890938747	-1.3159799715292992	-1.3099854668119553	-1.1902880772618034	-1.3009007339867529	-1.283767106411278	-1.7221125607753907	-1.7404268196363462	-1.4873145829346333	-1.9110721533433561	-2.056195624749226	-2.0250419397921493	-2.151142036399663	-2.267940601278621	-2.3951629042767877	-2.525797089237865	-2.858480372704579	-2.5858707564676107	-2.9594049259269455	-2.9426346988798313	-3.1844359055890736	-3.232219935953934	-3.2146757113724473	-3.5078523814729823	-3.515519253334	-3.620874643661472	-3.9399165671255956	-3.5693442793390666	-3.7504583103073084	-4.042670564185809	-4.15001127158482	-4.119572538552345	-4.414393899609659	-4.474550670208118	-4.460414152981881	-4.414959647091011	-4.708121380812271	-4.904977320577452	-4.942110538813178	-4.945358818455997
0.1948773788966952	-0.001532179226664085	-0.19903393830675006	-0.2530675281293011	-0.47411841206550936	-0.5909115458414127	-0.5937464629986359	-0.7608695872854134	-0.7970097178411251	-0.9477577854131161	-0.9146933564993711	-1.1544179061099296	-1.2482234158061498	-1.133099938005236	-1.362696023950615	-1.4588814163613486	-1.7309301813578823	-1.863942429126619	-1.8825414327903893	-1.9211970154351126	-1.9956786758705953	-2.1162382823560013	-2.2608067122564415	-2.2936590851599994	-2.5652730161869215	-2.508709695430704	-2.590050029877585	-2.7310140642514575	-3.001691444014808	-2.92059796063381	-3.1661467510693684	-3.0629939952698537	-3.3393391628661013	-3.6762216345225287	-3.302372311118965	-3.3337855507713616	-3.769175456923672	-3.9268463069977866	-3.9388386770605184	-4.034580598826396	-4.019624295935613	-4.349170365575869	-4.279019772496742	-4.382867258233658	-4.3667239642145015	-4.6766620733644135	-4.713609697399201	-4.672729541167059	-4.902407983809617	-4.972213937293154
0.07110862180347159	0.020893956616460707	0.05773002885197659	-0.27633400333374053	-0.4232003698441404	-0.6219438931484276	-0.5782483240718906	-0.6221785198721842	-0.8702874767591797	-0.7923897255347907	-0.83226703302793	-1.1480149588107753	-1.1448550548995373	-1.3147050410728855	-1.4180508564759322	-1.5897284705760617	-1.6654782568027104	-1.5363477279517985	-1.8396551567241342	-2.002923086704558	-1.968785330961479	-2.088618804787673	-2.214437269634035	-2.383603288345866	-2.4100234993600624	-2.5613662657204856	-2.8661316434908186	-2.75940955774092	-2.827156435587464	-3.0449579396895112	-3.0664062240673204	-3.21460133419417	-3.3351448002420168	-3.3704606651935776	-3.348364131002749	-3.561195408404979	-3.8956210876639283	-3.910472603359909	-3.947555395110541	-4.196183006003704	-4.285917733227092	-4.198553076782826	-4.129269718444646	-4.468373392280108	-4.574329379889509	-4.46101153976608	-4.833189544467148	-4.617801959419209	-5.047970785083229	-4.828393200618896
-0.05312276230962637	0.005438616295440471	-0.24632554308972013	-0.3367434736466345	-0.5770537705225873	-0.39798782492183704	-0.5852215560088393	-0.7576366666216047	-0.9265172423488035	-0.7329919861728109	-1.1065822256819715	-1.0120884497967058	-1.2875326879840432	-1.264123160581219	-1.4107382811065339	-1.5560030228295687	-1.7677797270687479	-1.9113435626078958	-1.7945155687165315	-1.8663902241248915	-2.038644920631167	-2.008151077462214	-2.0964534248267723	-2.3294397205979767	-2.4466986378164357	-2.536285088249477	-2.482252594264761	-2.754609708821028	-2.94648960759436	-2.9114080883643187	-3.1345286651352837	-3.2866321301535795	-3.2799538761008935	-3.2112115625742526	-3.442955449507829	-3.567346726475965	-3.5893015885985347	-3.7970793406996757	-3.8753772059982823	-4.069204113421273	-4.1596250429146595	-4.241985390273938	-4.290112878777505	-4.26914073947857	-4.589698630397157	-4.545827360159667	-4.750989280196428	-4.929632107612867	-4.811416123626309	-5.198480617756943
0.02868357159177063	-0.16739795564399196	-0.14680412501568046	-0.4172020167702927	-0.5789939409434851	-0.42411445221541144	-0.5132547646107999	-0.6185126641865232	-0.6932004428247629	-0.7704371778785147	-1.1211715369164985	-1.058400128912934	-1.5020504171366815	-1.2228599467022707	-1.1960567121267598	-1.3300914250543063	-1.645450069636282	-1.6154768911660256	-2.061218878447896	-1.8470961534111041	-2.0751936836455416	-2.316519637136511	-2.2244917150655756	-2.4588061155013494	-2.4906567427236914	-2.667023276554979	-2.691495520803945	-2.8369534393454767	-2.879064998802502	-2.934303168997503	-3.034560250734964	-3.40910728267388	-3.23242632621069	-3.2674483437070307	-3.4934387863666934	-3.6424438335227465	-3.7616689554695317	-3.8708787979594916	-3.7462270916986755	-3.8438345959820115	-4.176001078781803	-4.169909386444666	-4.222438290130227	-4.2245923099963845	-4.576181605301759	-4.522358919637227	-4.548579229400426	-4.938359893607326	-4.864049183861399	-4.891927626892887
0.009810243210653713	-0.013377566390498127	-0.18955628897464238	-0.3057290112589449	-0.4339416670630904	-0.4483856586714518	-0.4277872192259174	-0.8191833947993121	-0.7217128931012539	-0.8935040724885647	-1.1410645406993412	-1.1444697282052096	-1.3068436983927418	-1.3516861364884614	-1.3944563915898671	-1.4431179980333335	-1.580321230713499	-1.7300073030731218	-1.998849659287876	-2.0540563492211774	-1.950878268385999	-1.9971540527499714	-2.1718105032802932	-2.3101236017264126	-2.3712258241928232	-2.602927673298139	-2.727758167354869	-2.6797607310709353	-2.838310700915506	-2.9148557501732086	-3.156609941041273	-3.1049689471782407	-3.1471263376243854	-3.4520225466550123	-3.2483211169629413	-3.5936890535937254	-3.6102698807336497	-3.801732543268819	-3.990914190519427	-3.9591982228267106	-4.122005949948001	-4.052335015291821	-4.279947065714257	-4.501111508307168	-4.36034018706081	-4.473833287670731	-4.706131201292396	-4.999455703418219	-5.0788027196769425	-5.104613634629732
-0.1931429657732921	-0.26955731344076506	-0.1400707428581346	-0.3057588177268324	-0.415486619802974	-0.5407448035936986	-0.5632764948424628	-0.49412089503567547	-0.8927072289939969	-0.9029743058144007	-0.9526321419803312	-1.143667519296652	-1.3017865367423078	-1.3586478953187981	-1.5764157292223269	-1.5011935795795575	-1.7665759861986352	-1.5632108428128673	-1.816780381690034	-1.7274244060315487	-1.9066271939582757	-2.3448529708314014	-2.261227598782596	-2.3500421989604825	-2.4886035273992158	-2.4960758448582525	-2.652069224394252	-2.7456610742954597	-2.9538095620708598	-3.025192983039459	-3.0678206150632987	-3.1012952020796787	-3.104608927227301	-3.3864237218979647	-3.662149484196647	-3.5345444305093356	-3.6853673872167856	-3.8148541270010004	-3.9360439092290456	-4.101980926592059	-4.081292581677288	-4.268084055193083	-4.162584590592258	-4.306838018116902	-4.589612474030709	-4.520940642345092	-4.721462356669362	-4.660685526064697	-4.791751706137802	-5.023705671735035
-0.02777356406885438	-0.09460388898500824	-0.16723755361321285	-0.4428580852974058	-0.34894074827100485	-0.539612978011671	-0.5895912512663526	-0.7324887979493326	-0.6194087247702711	-0.9356197768367415	-1.1133839019350942	-1.0442265265197987	-1.2760439466703304	-1.5191422948418511	-1.3014393460355678	-1.4776963528698004	-1.619406484675235	-1.8695647480771853	-1.9956575253085078	-2.097723562653252	-2.024063589868049	-2.3379138133875674	-2.2640348998841526	-2.428798875978174	-2.3228706036553546	-2.5538371664362116	-2.7346089868320465	-2.6812198971289614	-2.82209012089385	-2.9730393144774276	-2.8211266063033134	-3.1488092381305863	-3.4086627541303405	-3.1938719007490732	-3.4585458034241205	-3.537286362854744	-3.6909041117730768	-3.8546790788761403	-3.8169696884108757	-4.14637671082066	-4.0996842177275665	-4.204637330915822	-4.365325597967003	-4.306508743890432	-4.42134032126029	-4.66568233308501	-4.888166097683279	-4.90765524218144	-5.072393939403256	-4.91247638031932
0.1662886192640869	-0.08815541214312324	-0.11027054619867847	-0.12895503783828982	-0.5916423714348706	-0.40181397261583074	-0.4307173380960118	-0.8559918440330587	-0.9097153449341226	-0.9033499798688461	-1.0576112136068334	-1.2172543068639854	-1.2246986054602085	-1.2727616543267883	-1.4245616046599148	-1.4469302556322288	-1.7573882277958888	-1.6202768090638535	-1.9308599287499524	-1.9080218702067264	-2.056069490258697	-2.098307010884836	-2.242036373993072	-2.3390061109127953	-2.487354821711099	-2.536126303710239	-2.88321011426077	-2.761100356874558	-2.9033125832895235	-3.007317705660126	-2.9828248943993887	-3.0908510013165067	-3.110373987802547	-3.2381064621053834	-3.4832317446087298	-3.7203494276111737	-3.643698133341918	-3.661380945774859	-3.768623815641803	-3.9939965341162704	-3.972408666654818	-4.339593591931699	-4.13917387141123	-4.28037072166162	-4.335591471865036	-4.5070944665151025	-4.60033309373148	-4.885649148015542	-4.998870465883648	-5.09602250535856
0.07226278402098336	-0.14147432973633073	-0.06212197108812445	-0.3173828330024394	-0.38654341645397955	-0.5109731607932545	-0.6644452708048306	-0.4730819091821892	-0.7047941915565155	-0.9204745372267613	-0.9381293261931049	-1.2392065812888415	-1.1582965512163206	-1.4386166734360861	-1.4510023810590418	-1.6160458056925946	-1.7432951586094574	-1.6741951223620586	-1.8167089766779663	-1.8999870594995334	-1.9632116424236372	-2.3306811012344464	-2.2175877401170543	-2.3250796567748573	-2.382067931939375	-2.531240269637239	-2.7505733246901634	-2.790234141638987	-2.9505585602647932	-3.0724700081440246	-3.163319600017055	-3.1341655769438956	-3.041402538104953	-3.46186823147661	-3.406154146294377	-3.7260867674186495	-3.6810547909733287	-3.703914923137332	-3.81707423343379	-3.9710097208991937	-4.0193910528423284	-4.061355294658957	-4.26881087680542	-4.147417861778731	-4.481268398476293	-4.623190745950024	-4.673443983974285	-4.731875038668954	-4.805797697511587	-5.083437392011377
-0.03282144518763579	-0.1127644254463589	-0.15106416665686198	-0.5207277144552536	-0.38952856896350535	-0.3285499805757488	-0.36589635777020124	-0.4924930145590486	-0.94494190794651	-1.0513559538752937	-0.8215718432350487	-1.2125127875340682	-1.1409372655656709	-1.2425786054194112	-1.2663146619129295	-1.6729266742262612	-1.7088384915121726	-1.5935815951113104	-1.8192376648295248	-2.1030599601098325	-2.0023002128000704	-2.117846282124186	-2.4120298896473975	-2.3471398445404454	-2.5308496207480964	-2.4799053374598357	-2.668382042806147	-2.6970318723249456	-2.9112550572358113	-3.0862504669373343	-2.77617316732127	-3.1481375814895527	-3.2685912422286707	-3.184443395960581	-3.4321918937839566	-3.415764042139684	-3.551856871999236	-3.6914072569261487	-3.868702240117228	-4.060839300548434	-4.167447452550303	-4.041912388200641	-4.2594681286090355	-4.285846894169346	-4.482717790844797	-4.572736169422681	-4.663952781858319	-4.854376804594018	-4.720797404807214	-4.98712894081464
0.013831214424342384	0.01801982824628126	-0.45600668240517006	-0.2404569141947374	-0.4421435947979892	-0.517393631977542	-0.47064517472563683	-0.8053608845713618	-0.8205604798453358	-1.0297005175532226	-1.1163206529328575	-1.1558570791263707	-1.3066010311575722	-1.3883347136950155	-1.34665449836194	-1.4865107624928438	-1.5767234843741624	-1.5758025434556888	-1.7949787865413394	-1.965058682126314	-2.0885215760199194	-2.2318475143401746	-2.312259302956429	-2.5596156280344697	-2.5651217740582055	-2.7718795259074676	-2.554684922928506	-2.6344993038232345	-2.791226899287518	-3.1553639691262543	-3.175194415072629	-3.116275635626773	-3.382735864760018	-3.2884947506128896	-3.4353055044479555	-3.581147283616637	-3.687044827803023	-3.735838971440824	-3.7365683918147	-4.059024002345094	-3.9984061432836095	-4.046603636159289	-4.1414726332417375	-4.447931568011287	-4.39183392835702	-4.7507957438693795	-4.60761686174545	-4.731136687547553	-5.006213586220867	-5.065366460469831
-0.2823011533456292	-0.05266271838163948	-0.09098965435089207	-0.2581104575972944	-0.5207254251090527	-0.5526461586367389	-0.7775459915367418	-0.7675987049299288	-0.8428011866571964	-0.9524279588357281	-0.8291680296233566	-1.2094159005146374	-1.2254173021702708	-1.3711051709145976	-1.4307680683363655	-1.587980622357448	-1.5279786551562151	-1.8461545906302745	-1.847553572324878	-1.9896867769280897	-1.9349604990531277	-2.0936047897151977	-2.3580669896457636	-2.350608919910482	-2.406187382723329	-2.6575021378457104	-2.6332533048896427	-2.726373234230044	-2.963098551597328	-3.0328305664961697	-3.182313996541949	-3.2091696187198595	-3.1996478086461853	-3.4070421552246057	-3.4611344923057246	-3.4973904226901924	-3.601532964263999	-3.608619459732347	-3.962632808478781	-4.134084206764728	-3.9945799191400044	-4.2287108951176275	-4.445032998670923	-4.312985402792665	-4.611415138308102	-4.306268324515708	-4.766291167759423	-4.945926791895485	-4.804889405763226	-4.913352767567996
0.005999361174645065	-0.3996416088780282	-0.14994318150600772	-0.4073742564175642	-0.23385146171702798	-0.6968052659896418	-0.5683428219548847	-0.8889637244158074	-0.8198893012578735	-0.9661179240642559	-1.0580924546430346	-0.9875119289141686	-1.198390772596857	-1.3731620558255857	-1.3124777669193675	-1.576042025374838	-1.5484631410611602	-1.822189522477705	-1.7963688772380506	-2.079454335778756	-1.9747093890031633	-2.0926455263110046	-2.3686844432855376	-2.105175828403187	-2.3177506168507316	-2.6428815853470495	-2.6494972197563165	-2.756269453842634	-2.902824560102677	-2.828802721549115	-3.0825939515689336	-3.0433614744338007	-3.1042890768307543	-3.353950108470998	-3.3823123283117607	-3.644302842491938	-3.7778061548840705	-3.7785825485733078	-3.9917077995697974	-3.86866386639616	-4.022854142737153	-4.233471113174878	-4.293418904910763	-4.406625601480267	-4.427764254563302	-4.517595108238444	-4.523908421119901	-4.8385544049209805	-4.927708377119016	-5.00769420548643
0.0644860439201539	-0.006868918070541588	-0.16309934206391896	-0.21856965929235866	-0.45356543238766805	-0.613399943135098	-0.7322774419829465	-0.7654951137663287	-0.8901867985602918	-0.9571082373535923	-1.0806337781393442	-1.0742897578825403	-1.2287102677064607	-1.2616828110344265	-1.5933500264744929	-1.5289416457022709	-1.6676071809256903	-1.7099862662032763	-1.9110512296762363	-2.0238973311934383	-2.0882661317651667	-2.0992483874734376	-2.193079503722471	-2.3048735396094777	-2.405243116866313	-2.581961594133205	-2.649169818716666	-2.878732047577779	-2.991939934639775	-3.110959109739911	-3.2031622279370744	-3.221166322956984	-3.1896130889396543	-3.401600320214129	-3.577480777270095	-3.5072806605808253	-3.6935390854416292	-3.761577132453908	-3.7714571201920997	-4.166669707299289	-4.022840061163332	-4.277176050247689	-4.270318592371402	-4.637500953169804	-4.471325634740034	-4.68349044976785	-4.551228389880707	-4.810549000367525	-4.851429591946552	-4.934510388666445
-0.05467893010729091	-0.1803456875483586	-0.22010480978506963	-0.2845073937496404	-0.47482514361544426	-0.45593786420710264	-0.5963763595182447	-0.7240697978249697	-0.7856829626358719	-0.8383718850609059	-0.9705680965570246	-1.0925414404300131	-1.3446354692978397	-1.406734312503739	-1.322551232744858	-1.7512653925511876	-1.5039225556575853	-1.7074924862391048	-1.6622027671615487	-1.8620632014904703	-1.9888899003491014	-2.266510164713664	-2.156761685536043	-2.3154657193133033	-2.315930926967088	-2.6515785921091326	-2.803747768056867	-2.501960204706413	-2.892050300836213	-3.0586588350360464	-3.0352728237260695	-3.168583380983696	-3.2386277349162715	-3.196219300190175	-3.550978439952177	-3.6156198401088213	-3.722842188306978	-3.886309750772362	-3.889349196512533	-4.0674081840967045	-3.9982535596288136	-4.322188845066383	-4.179548552651002	-4.211663345628104	-4.496784894180134	-4.734541668473814	-4.625967450544593	-4.7895272302196465	-4.912143046022305	-5.000846678830684
-0.1458287910659621	-0.22928771772022322	-0.04910658746759189	-0.1883699073193506	-0.41698454644955363	-0.5712536241435607	-0.5049967877645138	-0.840655210195082	-0.9164279419382602	-0.9301797941412925	-1.0897290033264595	-1.1291320382688057	-1.0913596532237682	-1.3087888272445134	-1.4434232407760998	-1.591834615267232	-1.7048587906812314	-1.7715204588188962	-1.8433831861875205	-1.8588210534940888	-1.9040294580718802	-2.1811822660584523	-2.0481447606372547	-2.2326022281678464	-2.3579986700620106	-2.6757123129648432	-2.682038779689098	-2.7649172969616984	-2.9526702193653453	-2.990853455639098	-3.0583234447326824	-3.336568577408206	-3.2787568013032087	-3.2511182781587604	-3.3652390866996518	-3.509205398970517	-3.6172200940634642	-3.7520794080171473	-3.9207100319071175	-3.9705118111956086	-4.218397761417597	-4.159280762979386	-4.374667690374066	-4.326210503468306	-4.562538593365662	-4.45915950367689	-4.624454429204668	-4.769105866235416	-5.032844630894526	-5.111941771708638
-0.0647968755788158	-0.08327332389447384	-0.30051517175064557	-0.3532474877462237	-0.25265833269765436	-0.5041544041154697	-0.6597472340475846	-0.7395926237826732	-0.7221363051914812	-0.9060107933192605	-1.0419102780353482	-1.1265111734602182	-1.1940586321344606	-1.5430040609299498	-1.4236706078656245	-1.6926862426073148	-1.629993670355033	-1.7674656773745843	-1.931686685449303	-1.8676109206935225	-2.0362239829406312	-2.1338888549380646	-2.2651503642471145	-2.403263156587078	-2.539410384397208	-2.5676540760952853	-2.6571509649306075	-2.6911320037483515	-2.7257139499968535	-2.9017868602882446	-2.9965354281799637	-3.013821860652993	-3.4380334593303026	-3.3874220835852102	-3.4033673537814324	-3.610182596723121	-3.735027555070542	-3.84405867947242	-3.988853212549674	-3.987326801522379	-4.086951027426284	-4.050342121987905	-4.305640790139389	-4.5058339734545925	-4.431735968604311	-4.616652408596485	-4.681462284975584	-4.805067123861816	-4.804639216136451	-4.968856340488754
0.1805224082083404	-0.18674510254591098	-0.28296379465810456	-0.27563754199004425	-0.3091484723738543	-0.5424088823439858	-0.7140231168457993	-0.6509481760527014	-0.8973066974350875	-0.933372870733754	-1.0261411950281691	-1.0628953748941112	-1.0827476584089115	-1.0801617090786035	-1.5619856821010292	-1.630036926909272	-1.7805563080730442	-1.6858665862798552	-1.9269976410475347	-1.8432901623543414	-2.305796123587009	-2.120124860090493	-2.151845308155505	-2.48583227674366	-2.3953260097988096	-2.518933161324992	-2.582403328565558	-2.6934318090332012	-2.8627098196073795	-2.882578436538215	-3.0768355284328175	-3.1330892597106845	-3.2368429995442036	-3.468735174380338	-3.5642790545630314	-3.5427659987805384	-3.6741038773982773	-3.9196788783165477	-3.9457198898569033	-4.230729581516731	-4.178005602654934	-4.139253059319094	-4.235019008993276	-4.3128380390658245	-4.461617448739715	-4.452500199412148	-4.843136682637855	-4.764501872274408	-4.593578267039401	-4.90364359710857
0.2214419361391654	-0.04656149929823865	-0.26137906848809755	-0.46976624705664005	-0.36106314212066976	-0.4208934802088965	-0.6892716626799326	-0.6532436107072782	-0.8948916287534843	-1.1034247255584304	-1.1612181704113869	-1.1664565853902185	-1.177506280535255	-1.4555991739063265	-1.5264801049531322	-1.6738608187855943	-1.7377079368517596	-1.8322332441650693	-1.68094636922325	-1.8935857328779748	-2.014100045514787	-2.1695082460517843	-2.2247373738588885	-2.3588694984394705	-2.398629914436844	-2.530723358799534	-2.5245949811979176	-2.656321732141431	-2.995085105644931	-2.921792310054446	-3.157586204093451	-3.215638126704347	-3.15300702680438	-3.26378430602553	-3.4010227734207508	-3.5508249117166035	-3.5984827063290377	-3.783880551704017	-3.9397075743996735	-3.952601460968273	-4.018911135302966	-4.205698193310944	-4.412997701435504	-4.309316475176734	-4.5161360980634315	-4.470455988767964	-4.748476951505871	-5.018754608158886	-4.722415133515018	-4.906030161923696
-0.043760336551508155	0.03398225112475145	0.015970326027534676	-0.20709584003724432	-0.5415460744860272	-0.3482668210242865	-0.5712500937487666	-0.7497051626065427	-0.8182659468252409	-0.8690238585620083	-0.7963656828651189	-1.0955640041175494	-1.2083154327432353	-1.3092560643121933	-1.4067359856698731	-1.5460584351198294	-1.6347911639902382	-1.6323047195653322	-2.1423963495894114	-2.047897734085937	-1.9158310907473268	-2.1651094144853986	-2.2755379307309633	-2.261029654042024	-2.481690248063098	-2.579506736832617	-2.524394293650512	-2.6469056368393336	-2.985436975044745	-3.0971639157183004	-3.177178465327526	-3.101647706518778	-3.2220025425495282	-3.4617326776373343	-3.6002641611711175	-3.5368153194566143	-3.595784798203335	-3.656749530421407	-3.813019605410895	-3.8333601963178956	-3.9756164618581225	-4.138543559869947	-4.183140402835261	-4.416240909700589	-4.287887808561864	-4.6208177861545705	-4.742840358986536	-4.749966059015078	-4.801079638459392	-5.136438572317353
-0.11018310503208516	-0.04528808294335892	-0.2754216335475891	-0.23667379622088625	-0.46655934035125607	-0.4778860650588829	-0.6346033406488517	-0.7245929951581961	-0.8636611802934762	-0.8146568828099323	-0.8834807951269267	-1.112229731732573	-1.2345298925055497	-1.2894636606417809	-1.3732460378971303	-1.3155702256573893	-1.5491623442816058	-1.8022284712947014	-1.9004467896175423	-1.7603774933580942	-1.9604870228782565	-2.2169285338135722	-2.2076856286172184	-2.258670574619692	-2.3699562545063118	-2.4856638757823486	-2.6231348040770226	-2.920321088847918	-2.797173418808709	-3.0741307580988515	-3.119110573338682	-2.9282563443980827	-3.3092959557388606	-3.453506784935052	-3.521397183694623	-3.6614819091396993	-3.6910114917818175	-3.885888175589676	-3.89982546994186	-4.152109557125817	-4.050029448926735	-4.194405176398417	-4.175282049088381	-4.313159839617835	-4.469376709597885	-4.816055091786184	-4.586334941015537	-4.834832316141675	-4.766656926367412	-5.054077068916671
-0.1004056925870875	0.09370661991719054	-0.40871199407008685	-0.5080881441973852	-0.3418242278101212	-0.6526390203228702	-0.6915597711488093	-0.7569890446977119	-0.6665229262616736	-0.8180859315619426	-0.9906429606602357	-0.9646231775340728	-1.072743749685278	-1.3537243958334142	-1.4154264414893478	-1.5897004581857557	-1.6441786528323257	-1.8698565437363288	-1.890002894795263	-1.8513408039648247	-2.003974086375067	-1.9816754801682936	-2.160393630379889	-2.35606482313532	-2.54569950450463	-2.47421790829587	-2.578973210907334	-2.4955873345981883	-2.800338263300995	-3.034073288422142	-3.2259964469754396	-3.117305657812159	-3.230734848576019	-3.3875052987406975	-3.3926168217805417	-3.605820247703766	-3.6599267058417952	-3.719915751121189	-4.099134268986023	-4.141143372394625	-4.130060267463431	-4.224436501401615	-4.120779248256999	-4.409099609352617	-4.467483733550572	-4.534462682054545	-4.607427828116593	-4.719305814098795	-4.795655844498499	-5.113390859500374
-0.12456154653394938	-0.06839830797486815	-0.18804000437609908	-0.3691142686589453	-0.3545558088545562	-0.341175718077497	-0.5412399412376524	-0.8034851193474201	-0.8184224054804913	-0.9909194045176405	-1.1136774810765238	-1.0718234317311195	-1.3151987994389625	-1.310607192275641	-1.3310880565907195	-1.458807706304317	-1.5531699732879443	-1.803130576624882	-1.928896967165297	-1.8599499505896941	-2.054699832169975	-2.2592456723172107	-2.321387620392446	-2.387487795426006	-2.2572115852507126	-2.336803586910828	-2.7275518610045153	-2.7670040192447827	-2.867975597807443	-2.927555463763231	-2.7891775377871975	-3.2042966973156224	-3.385081155966586	-3.339118371523998	-3.6211065407663368	-3.5190279313033126	-3.6959024521506625	-3.761396494663667	-3.9044850810966576	-3.8917296311761103	-4.11555973199862	-4.233777778677349	-4.410200578547534	-4.422484773842404	-4.406570665703568	-4.7012325530026295	-4.758204680595091	-4.681335104924654	-4.9742457177382455	-5.086531521311323
0.03196116663814204	-0.16863350156254592	0.05777832402907279	-0.4299438309466454	-0.47904584343075185	-0.5496527630279289	-0.6437808462673301	-0.5755134991950093	-0.8982384289421944	-0.8766735735549512	-1.1747779242904126	-1.1826746255275808	-1.1975435037400153	-1.1512300789884964	-1.4577408127810023	-1.5076559778843186	-1.664675672682325	-1.7479176544483013	-1.7537090853175066	-2.0877625477522237	-2.2221911326266826	-2.033519260846447	-2.2117311674863456	-2.284814639790535	-2.3185387289521144	-2.555156150906225	-2.4894808510577566	-2.791755676893328	-2.791114578225847	-2.85272204469896	-3.03482794459364	-3.2889241707481447	-3.2630826808597457	-3.3789104704050845	-3.418193936547777	-3.6426936105599435	-3.813435099364842	-3.7171546838745093	-3.8536824340888938	-3.860564380340335	-4.207646611548668	-4.181486142293385	-4.133918778989035	-4.267192573519469	-4.352327722636036	-4.470201680869645	-4.721611835910837	-4.848695050032096	-5.095586719293326	-4.913118206751094
-0.23063096884601972	-0.08070361724215219	-0.05833463226454236	-0.2881239226292128	-0.4902527840433105	-0.4128487010646821	-0.6931096954715295	-0.6564548196568207	-1.0951481705208141	-0.6802291500011495	-1.133642884686922	-1.1422495655406448	-1.1308616131549944	-1.2645718380486464	-1.3589354020666269	-1.530097219927526	-1.8533302590432401	-1.585413337617038	-1.8026472014303851	-1.9028330299441618	-2.0273725048541036	-2.1733952261722025	-2.209145526784032	-2.2005149214029758	-2.531313826100593	-2.670658674321235	-2.788223332465838	-2.831004241498206	-2.9918186220630854	-2.937103496995214	-3.081564291979249	-3.129710024206262	-3.140827854429702	-3.303598400141019	-3.4012682819891964	-3.4450867105510317	-3.8911686021576575	-3.760625524707255	-3.7481130980279023	-4.052816736443939	-4.03262786319632	-4.17777669977383	-4.312194006274738	-4.515667080127364	-4.56995392386126	-4.5504177738207625	-4.650256444617764	-4.974244767668996	-5.0095020977479265	-4.989239064643074
0.07687417210169017	-0.152533418874579	-0.24407949965327308	-0.2243357637902786	-0.28897110990632296	-0.6255289857093855	-0.6700984553093745	-0.9476386027709254	-0.889483954724603	-0.9935926795245975	-1.0820408852923356	-1.033292076216108	-1.1672401352195707	-1.3742042884485008	-1.2241138327074552	-1.612203725255079	-1.5901501935331177	-1.866430743524123	-1.6198541239386381	-1.964198091566261	-2.024180413259703	-2.1731571308196647	-2.4054766944875654	-2.485503566996213	-2.3795613786589804	-2.460657997786427	-2.64015126608396	-2.591105073657057	-2.8066822632192756	-3.037009670296096	-3.191113034146748	-3.158626401206662	-3.018200222878296	-3.3922319367710143	-3.4087854667357007	-3.536436068896079	-3.647519495253734	-3.756141051964563	-4.015597876420621	-3.870404092898814	-4.196251182355575	-4.272425146961354	-4.235709332446726	-4.37924486212319	-4.51472315613261	-4.71723741747821	-4.73142542099103	-4.914241239066575	-4.9098001646986855	-5.022242665327687
-0.08907097061208241	-0.20618926315324715	-0.4776487750508918	-0.4883010541174449	-0.4315942419611999	-0.5541987764055408	-0.5708501084075464	-0.6211391933586872	-0.7182102023842427	-0.6301747763530392	-0.958498648237937	-0.9281187125489907	-1.3027802189531723	-1.478285871865457	-1.5713795499705145	-1.486235542437513	-1.4998010316906807	-1.741226525756073	-1.8304095993381133	-1.8959822202665857	-2.149519319710103	-2.198333758318325	-2.204582485747638	-2.4481346811350426	-2.428563755061396	-2.4504798652124187	-2.5995981946727933	-2.884160490554485	-2.8032648796489235	-2.9982958983251673	-2.9520219474341336	-3.0093665998040042	-3.2447840880460235	-3.3126442435053702	-3.275993598822632	-3.522299231887752	-3.8698365210311563	-3.557245707669432	-3.900763959866335	-3.9767542566641234	-4.010439088001329	-4.113512755531784	-4.224182887350997	-4.396666563498045	-4.517907478672081	-4.720075325741225	-4.767522779580839	-4.639704936782996	-4.636212026419706	-4.991230169618011
-0.06429921097566647	-0.0002958519121319947	-0.0747649237789417	-0.3952197530303026	-0.22056101303846654	-0.4703071666779231	-0.7182466813364881	-0.6101800129285145	-0.6937000283931085	-0.9147210155799915	-1.07971208575703	-0.9303471584440598	-1.2986495238128348	-1.2792235018565175	-1.2414151334741328	-1.5386977396302401	-1.610767057063213	-1.6893681423028581	-1.738479346658666	-2.0522913420293456	-2.020571191419781	-2.1012456373100066	-2.274736555266641	-2.1397774326275156	-2.4602108703057817	-2.4705643887398234	-2.6613558208522745	-2.7064726437819435	-2.8961058924349485	-2.8117182293005647	-2.972722806604315	-3.0843714556736823	-3.256011271887806	-3.3705855560573315	-3.511643265890866	-3.5397588739473753	-3.770457871560743	-3.5994175371815076	-4.042639693659393	-3.8326554249579354	-4.074681243401654	-4.171637527392825	-4.339759910450065	-4.3334372343425915	-4.570594656763068	-4.542525664594792	-4.7064309330148415	-4.825227744205034	-4.995876366353803	-5.138009004954956
0.018073328853547094	-0.2576589233239971	-0.2828627800520002	-0.25166493990593786	-0.35057031489544477	-0.5602394878963882	-0.6206832081803121	-0.6459122810194504	-0.9726701143734914	-1.0183491394005972	-0.7436758457538527	-1.155536226764454	-1.147117918353009	-1.3459783674665167	-1.3672977016023768	-1.5308804198957933	-1.317041784576674	-1.7735761620089179	-1.8215336384279093	-1.918525746795845	-1.83585172688443	-2.220665673342045	-2.2906445732429916	-2.231167953094984	-2.493126384124405	-2.5116516683934997	-2.455010980107639	-2.6333626971183732	-2.874839147904705	-3.005545480750408	-3.0663549471132323	-3.2671974152141776	-3.1475240009981946	-3.416464927800134	-3.444095436272943	-3.6655724118082524	-3.639577220027302	-3.850633831175773	-4.0297981408070935	-4.074245032503045	-4.185763766067461	-4.237056838321356	-4.149253998677213	-4.494137943964667	-4.5266265691767735	-4.7624357919531874	-4.773259010755002	-4.945226015061751	-4.838475076953771	-5.125231740793129
0.04570459285383761	-0.1410848778598183	-0.25915580375404623	-0.3852849986639434	-0.4490135320687074	-0.5546446135766647	-0.5053284003355084	-0.7003104320835688	-0.9407420591121863	-0.9764962609571824	-0.8373910269609445	-1.0932715811266889	-1.2602049095566545	-1.368887023194014	-1.391752797093515	-1.6954308817457073	-1.659120313110215	-1.8196572254637093	-1.801463852666712	-2.0766898077951264	-2.04821458187944	-2.1382553938794127	-2.3393256075604225	-2.2748767318791376	-2.405493774974643	-2.510261585745859	-2.560092238932465	-2.9851834371664556	-2.8162752640096	-2.818754421954342	-3.212399634432842	-3.3064851242085154	-3.183735950565376	-3.186316273300195	-3.2828391419372975	-3.6885699253359596	-3.6536359507121468	-3.691078325534346	-4.0312953558316424	-4.055318014824836	-4.057019046775398	-4.221949908020898	-4.16596358728228	-4.2422878538367215	-4.4939076288554185	-4.643543498676231	-4.873383696204938	-4.829247144954794	-4.902841446744625	-5.09884336110634
0.06832348602978013	-0.10956232614239772	-0.13341388513799834	-0.259043798337344	-0.5342968919264821	-0.5802545416682088	-0.8000581714307773	-0.715762321315663	-0.8279598918279801	-1.1421777884842137	-1.1575712273736196	-1.1601339338964676	-1.31898538972669	-1.2287042428623436	-1.3043487730294863	-1.4237727722849118	-1.6942966378505915	-1.771347489310983	-1.8048712160723956	-1.777766649335941	-2.0541848938482206	-2.2373153829278842	-2.247943694878203	-2.4850628245997077	-2.553554158751986	-2.4562963067152546	-2.570357763745055	-2.8661762781494082	-2.8758567012668528	-2.8415541459103832	-3.0550661481597334	-3.138888444762105	-3.1227999756549294	-3.50318498084227	-3.3669131815759963	-3.595957809959435	-3.586090608136759	-3.6538735899660737	-3.870830537254242	-4.056185493230898	-4.044038414259872	-4.265597243066329	-4.249981290358826	-4.274816358291726	-4.4997052324482105	-4.7006643353402	-4.808712906877869	-4.851747815165532	-4.830155302803306	-4.823844334553514
-0.16502719054375092	-0.24650423128078197	-0.061005816597926116	-0.30771685204987487	-0.31198644126254516	-0.5040276101198441	-0.5688587858267802	-0.7602364914969034	-0.5976147269335805	-0.9324234264592731	-1.0009250574622532	-1.0775195494997354	-1.2794282239867336	-1.2676679396490633	-1.3271271264676425	-1.3968111870345825	-1.4623255907609374	-1.766207403845954	-1.78336345797899	-1.8168896198201572	-2.0174895853639465	-2.0794068138944306	-2.198704415509703	-2.330621280643916	-2.30064984127772	-2.3963132602840673	-2.577295855592346	-2.772161800376957	-2.877831193567814	-3.146797470183683	-3.044885933024107	-3.0546097116264677	-3.3421466339421886	-3.336376833752627	-3.3813862861720483	-3.58917697307052	-3.789568361720984	-3.7385792095927695	-3.9636537755753913	-3.836924260264965	-4.120555577775204	-4.395366295855862	-4.175039796350774	-4.3366755334577265	-4.423513154159924	-4.572338105520559	-4.728990692010607	-4.708346478931774	-4.878400393599674	-4.8994093561326455
0.17229262354153457	0.0771153005137919	-0.3882461873682652	-0.280471817599368	-0.33075520259697755	-0.615059740724616	-0.6220895249754425	-0.6898936696094764	-0.8711052533551004	-0.7873843852347939	-0.8974726002952181	-1.093130620981628	-1.1067576027360602	-1.3199418933183353	-1.3265906831682548	-1.5394136744396916	-1.7840772865033692	-1.6019799943970818	-1.7449206858475588	-1.9007580001889526	-2.152671343549051	-2.1216080123916727	-2.257969656051896	-2.391457693950323	-2.3840593720963827	-2.4493260712506233	-2.7065521462818314	-2.8355371318832066	-2.8767584251670355	-2.8272282129458244	-3.0227389751666562	-3.1788960486649027	-3.2425850648962045	-3.3814003217815936	-3.3991904305089164	-3.599223073988978	-3.4937225560914484	-3.8040652652485716	-3.770309133133324	-4.021367652358442	-4.254121300479893	-4.10550903448231	-4.384733384917076	-4.2670869229240145	-4.658453417323512	-4.507964247529748	-4.8383061738851545	-4.790130517539203	-4.971119180714916	-5.01443674324038
0.10136195166513645	-0.11130170431923997	-0.11560284986951075	-0.18415400150727013	-0.3424935793744913	-0.3915041349509857	-0.5526054047076947	-0.6217890920106213	-0.7057853315293874	-0.9275253438517432	-1.0568450059103662	-1.1310912553621517	-1.2031685539045829	-1.3016325922999228	-1.5356938822932746	-1.4229699516431482	-1.564598679278181	-1.6890190374546925	-1.95684225160975	-1.75311630793516	-2.131749773823251	-2.260356105444563	-2.336662631212658	-2.5744338196194243	-2.4150198574515946	-2.510478945791518	-2.599278669299635	-2.657191810631062	-2.882742459733466	-2.8651353934687784	-3.1877885752391544	-3.172280383559732	-3.318914321545014	-3.457244269363696	-3.5418169937591024	-3.4148899763399867	-3.5503260341278553	-3.7215684083382627	-3.8875720601218906	-4.050876106117955	-3.9746379196311703	-4.112535957955969	-4.324273843649482	-4.25577045365497	-4.525770001950771	-4.50953630203145	-4.628497362026981	-4.757149077107264	-4.927721142683339	-4.903717869300554
0.0654691891113841	-0.030039341696519534	-0.2592904277443586	-0.2703162315911904	-0.3800022470096091	-0.3188913821012474	-0.7593360176417191	-0.7187915787107033	-0.848120033926935	-0.9560989332882497	-0.9295597839678981	-1.3330544277882346	-1.3119249750295021	-1.3632962060996598	-1.4980644480249548	-1.495435788628707	-1.8284718849086954	-1.8582227111562712	-1.8135891461624782	-2.0039442608143982	-2.039544825180584	-2.0157619934958175	-2.1246784733366417	-2.2190166410281673	-2.4572968754505684	-2.588690424037086	-2.6098689208622967	-2.773743473892185	-2.8651255562141342	-3.184739404868167	-3.112126659212494	-3.027873533022868	-3.288389785319642	-3.3190307024311236	-3.6108733120042884	-3.658448081063992	-3.709136655765891	-3.817010748399894	-3.8325213150581874	-3.8650622686206946	-4.098937286860906	-4.2746589282539045	-4.43041332207674	-4.412641984630458	-4.486720960697608	-4.49406741127356	-4.741882620256522	-4.689158234541876	-4.828263790912189	-5.005524353523202
-0.02663047738803976	-0.211872766716804	-0.2797713815219439	-0.25235780062595925	-0.3542071003487962	-0.4342048979950216	-0.5290758432016406	-0.8247181942508262	-0.7378199661407566	-0.9983279257850807	-1.2357775630572214	-0.9145463995937184	-1.1774624968125977	-1.2558679214288844	-1.331922040053014	-1.4805765398065236	-1.6049842557523704	-1.9069370959932903	-1.8768709252100928	-2.1736297105364843	-1.9964808798714035	-2.1420261723169354	-2.3059821752513536	-2.489057310858472	-2.5554514926654126	-2.7679805948304845	-2.674456380702834	-2.726715863563786	-2.7733195000261976	-2.934243350017739	-3.1511173538873103	-3.1974927540242537	-3.262740450976688	-3.295548601378178	-3.4099493704807338	-3.6487553889598847	-3.5881888073524637	-3.848676941301501	-3.9900712388579174	-4.074010079945596	-4.036453099485525	-4.14623003218122	-4.314464461116492	-4.355659118846611	-4.520694029662565	-4.511008860238527	-4.549194866365143	-4.761184872751664	-4.71762961135884	-5.02820634930744
-0.13995835559378403	-0.11196227766472683	-0.18803711425624536	-0.3318853546484677	-0.44246170275843516	-0.5308819449674627	-0.6799712609044358	-0.7316681517349544	-0.783194589813841	-0.9756654354945453	-0.9151043085815674	-1.1817021676687425	-1.203405113911975	-1.4430150672009474	-1.4536890021144566	-1.603174119670853	-1.6658088611725552	-1.987181076873002	-1.840660512289022	-2.0527970614959323	-2.0257032864671536	-2.1142843516551	-2.2478804081227564	-2.220291340453919	-2.483404350614986	-2.5034184594195583	-2.8418884673117395	-2.7559687480282498	-2.704471110186824	-2.9635316171779675	-3.1604944369222503	-3.2614108726268336	-3.2264500353978884	-3.400095112702923	-3.4862026666980728	-3.59310862619277	-3.4748927941185443	-3.7857856560340952	-3.782588618948614	-4.05823305309481	-4.209131471551595	-3.9841282052463955	-4.193415439422141	-4.485883897975055	-4.55209984108564	-4.43623898051443	-4.735296226584726	-4.848983377828345	-4.881560069676349	-5.035408291673402
-0.03564620838489462	-0.20615334487044149	-0.19058133995935714	-0.3804730344123479	-0.366091833746321	-0.45634177913072393	-0.6234658391969956	-0.6096062897256195	-0.9219346650907887	-0.9490833718359628	-0.9723149962935863	-1.1795231664397998	-1.2947861930292506	-1.2706356743110812	-1.4128553574336176	-1.6502777232747794	-1.6880577418118101	-1.6102357461088053	-1.9093845676919823	-1.8875660108774124	-2.1262460145405657	-2.129374051252361	-2.0784342296627973	-2.3523171690014935	-2.778006010700979	-2.426751551014576	-2.7083655953688734	-2.6748552553320493	-2.876309872415151	-3.011759851562824	-3.1100014491774144	-3.0509200321660157	-3.2900724401016	-3.464574209026223	-3.525943802091413	-3.5509076843313134	-3.6017785307952557	-3.8334407257247287	-4.040755835779983	-4.07031288325284	-4.039752249502868	-4.195347419472965	-4.394183092144087	-4.4260466798978975	-4.637919870146251	-4.826232416170121	-4.739040597933593	-4.841357554113426	-4.92191158111263	-4.954703577903786
-0.07814497743073061	-0.18929660369144255	-0.16686093668943727	-0.4495149523634018	-0.28336607352276033	-0.3563864048603581	-0.5735739627714707	-0.6706076613951626	-0.800720279302994	-0.9664409916263854	-0.9395456991068649	-1.194195821557221	-1.1735717110704698	-1.2663942298636601	-1.3007791533038724	-1.5942805980630395	-1.6105907225801497	-1.972547929307523	-1.8151963424623838	-1.8872819146440623	-2.0219461424538103	-2.049993620722056	-2.162810810668053	-2.290061643077543	-2.4977586792980655	-2.439909521617814	-2.4194221649567553	-2.724852081644951	-2.8673337460733483	-2.862599094465674	-3.1223644560963457	-3.1136127127939095	-3.0839677465326667	-3.3542186845038975	-3.5429803736692675	-3.5014723071917975	-3.7272956568694102	-3.7514114174012776	-3.8313223405748302	-4.026951670500606	-4.028476094115761	-4.250663446457266	-4.179108517847566	-4.414625409816303	-4.563957935810988	-4.814615955412255	-4.8397456628673545	-4.813646363844545	-4.854741757699688	-5.012649378771246
-0.07153306106502204	-0.22365041617974937	-0.1617454210134693	-0.3552013152767673	-0.45649258808688487	-0.5358176935047346	-0.6166833510284389	-0.6857484845685179	-0.8260877351586188	-0.9634443617502134	-1.0104343871202162	-1.1109964574506033	-1.219747757380436	-1.3624147638456234	-1.3369012404497898	-1.6252267015425517	-1.75580568487865	-1.701725097167238	-1.8829563514575152	-1.826219551952346	-1.9174041388029714	-1.9904148518902403	-2.318797985585368	-2.3005795966214504	-2.4240752043159106	-2.475162396924029	-2.9289305540348662	-2.89286387007812	-3.034163939043047	-2.8845946359380945	-3.03520531312287	-3.218836875059031	-3.2683717301939237	-3.25907411722131	-3.5766445014946773	-3.4537988486657123	-3.6206630899472603	-3.682486054815417	-3.840774717750677	-3.92245571174812	-4.096722058405203	-4.282755353495183	-4.334417407248605	-4.336932738799752	-4.453837815923063	-4.694493530893797	-4.683665236659955	-4.688688685458772	-5.034264132136863	-5.198663350016655
0.005720759198390034	0.061117442947940415	-0.19744766492420557	-0.35947548370591903	-0.31965059978272914	-0.46772417411603273	-0.43357112208557214	-0.5753349718559442	-0.8646591970524562	-0.8804122864917447	-0.8859745059978221	-1.1880647860857456	-1.252140960089974	-1.418267741090256	-1.4432679621241875	-1.5952750600311547	-1.74308658531149	-1.6344238289175568	-1.7885461427070037	-2.0151299589047524	-2.007026930230145	-2.1576022556862156	-2.1488698233207506	-2.2942907353642052	-2.455736829000817	-2.675295066539457	-2.613168898555325	-2.770964930067294	-2.7481883003097973	-2.7190139151284547	-3.0759259652159185	-3.0475047950108305	-3.3847229618342136	-3.3568874152754375	-3.480897393797398	-3.560442501724564	-3.8135047098864363	-3.7911640168427163	-3.906868163198048	-3.9684415692287573	-4.130434476079428	-4.323707667952808	-4.180137509908977	-4.352009602767761	-4.464169667247461	-4.584998481766452	-4.74936493533279	-4.715196193096066	-5.044437923587058	-5.055582887845931
0.1241032356039386	-0.11986749264291648	-0.32370596598714324	-0.42794524143479745	-0.3050303215523947	-0.5021519975312915	-0.6530023783846498	-0.7556123285458686	-0.8055932701572234	-0.7870999589117148	-1.0188574968893322	-1.1457598286042467	-1.0102398255844447	-1.5209749558663204	-1.1969272099105925	-1.4739039160568987	-1.598417114272008	-1.6369064404069291	-1.8996701896751131	-1.8916770444424518	-2.21930904944	-2.3032605312808183	-2.1723553703833054	-2.1598741324072153	-2.560137001066015	-2.571325882998362	-2.6623920283155758	-2.7417405030047832	-2.5840227939780487	-2.7941235809690195	-2.8785038085993433	-3.0803938928057244	-3.259486435111364	-3.3901158061188768	-3.243370651288802	-3.566443080384698	-3.7153959593564885	-3.827294541518862	-3.879101592184349	-3.8893069518260726	-4.156001971835968	-4.161935522101037	-4.378127651052857	-4.361481142238293	-4.485874369202999	-4.591037363676994	-4.849808135895315	-4.769295259731149	-4.815588216125374	-5.068739526587683
-0.0014447332012427127	0.03172316861010677	-0.30647642135004394	-0.5374164313977259	-0.2813098319647932	-0.6241912547222271	-0.5726709997781289	-0.7957862505200367	-0.7131982679247368	-1.04707060316935	-1.0849202076940814	-0.8424149378054189	-1.1617453205541388	-1.1910834518063584	-1.4131635299563459	-1.5281912362730738	-1.684260818840527	-1.9643307797808127	-1.6757163017900747	-1.8379712593192106	-2.180869520270261	-1.8857634598006712	-2.3347287874111387	-2.2134526356716155	-2.5315317262600394	-2.5360648293345194	-2.922788088327968	-2.882621380170614	-2.7568775914761896	-2.9631389598913147	-3.162705715101024	-3.210930833813835	-3.2691355117683756	-3.3829613599530006	-3.4666592218157053	-3.65370734402529	-3.621362868573906	-3.7908777996343574	-3.9504379992779968	-3.994662829624063	-4.101367705948498	-4.13385622563888	-4.33344850765767	-4.337264336871726	-4.55177509210633	-4.76852814266698	-4.8671117180720715	-4.783330948096576	-4.983533778721464	-5.056640845316562
0.13485029285421155	5.490297879842676e-6	-0.14542475282324455	-0.3170078785738527	-0.2347077611769231	-0.56476171726274	-0.5225309494274828	-0.7952481090055792	-0.8537342757800538	-0.9062326267549538	-0.9517179956140839	-0.9036721704826614	-1.3182204897941128	-1.1780731209655524	-1.3246469852908966	-1.4423134422670412	-1.7002601135384383	-1.7518425931851314	-1.8541141350629289	-1.837374909449388	-1.9704180052702889	-2.1793012671655836	-2.2016913431619276	-2.278086058233319	-2.463302785241226	-2.5049938668146803	-2.638176552230655	-2.759486693919423	-2.921618072650926	-3.0123869104400858	-2.9904592025049044	-3.152550545063185	-3.3757117237249896	-3.49491731641663	-3.530083286389951	-3.6032517863944933	-3.6408813268630236	-3.682363856537206	-3.896576566413058	-3.993814068205055	-3.981027160469343	-4.260844319226331	-4.223176120922282	-4.468509739759794	-4.297961038866269	-4.68401047201093	-4.742471973786996	-4.617989639629674	-5.001060102391893	-5.02253231336012
0.05835327949996183	-0.06950289505854484	-0.24827813680330135	-0.1780019027247197	-0.33144468019174556	-0.458104926342685	-0.7328447798310669	-0.6674202664403944	-0.8365056545673704	-1.0588025553970084	-0.9537528084295116	-1.2426539563567824	-1.2533292304313701	-1.32293589807523	-1.2998222907384795	-1.4527142064913394	-1.5305230820278446	-1.7413901847638773	-1.8492008503489499	-2.149987616801412	-2.1926863553152924	-2.14756763820302	-2.252306769439506	-2.267628663193866	-2.459923698876018	-2.6947074633283865	-2.677700641384364	-2.8048496015467332	-2.9355334287294426	-2.898425666529848	-3.049405288658026	-3.1429609007165524	-3.3070714161147095	-3.4034171309880277	-3.427915765288229	-3.6804441227855142	-3.717570893150404	-3.8935576688153164	-3.7711061856836956	-3.8059861077779096	-4.016986444916359	-4.343884411069328	-4.235177179042031	-4.395124171191758	-4.540099854298717	-4.486462993376552	-4.689907839529264	-4.692108834632088	-4.8460985404150145	-5.136061888244376
0.05267091836356395	-0.14737289496304073	-0.09213937588396903	-0.3968679474563123	-0.5465346535623471	-0.40557447497632926	-0.7209449267840287	-0.5773820482775778	-0.9101348580014351	-0.8530319357120371	-1.0026113155202205	-1.1783988001904055	-1.1785026967897874	-1.28464865795019	-1.493985542388915	-1.328147843200178	-1.7902169674191413	-1.6576047586743778	-1.774745623691916	-1.8464008162847496	-2.1232729397149392	-2.1922965342314145	-2.4118545621331196	-2.4179889177288345	-2.5089629256981976	-2.5935687415361106	-2.479875604731572	-2.707612793761199	-2.618483536514512	-2.8707347667978205	-3.2419080506688096	-3.2291915933479864	-3.239253825089493	-3.3212032787682806	-3.61818954046595	-3.5605441059058176	-3.7492710385020103	-3.7410179690633454	-3.7847306538747296	-3.993990456532267	-4.130685670926415	-4.1148787160879765	-4.170401854243525	-4.406184250354851	-4.191435620834148	-4.566577906139393	-4.856838760028205	-4.926388529492028	-4.9289710693932784	-4.815386037503832
-0.2640183552586178	-0.009192115323737385	-0.062420692335691835	-0.2462308457070098	-0.452443143477574	-0.4742832248642609	-0.5467578585647659	-0.6253720118662387	-0.612029259703419	-0.8659180744307812	-0.9206817165787942	-1.055773645469052	-1.2191455279485706	-1.2862275841838762	-1.5488879861575189	-1.5109800509463018	-1.5815208059885202	-1.7128249409392782	-1.848098039718884	-1.9569951574100066	-2.0342195130019647	-2.307776015516938	-2.2905701809333596	-2.5368692747230925	-2.3411130612131763	-2.420606845878608	-2.60693172218183	-2.68404080649632	-2.762843606806624	-3.043320168424617	-2.9117345994406314	-3.1269288993204905	-3.130651784786535	-3.19871578470931	-3.418550304894425	-3.6204419174991216	-3.6702748876522104	-3.6818117512353195	-3.8838985531505457	-3.665600423052405	-4.102474498936184	-3.9924617443948898	-4.4725510516377	-4.395355162981039	-4.332255137554332	-4.58310215266138	-4.60628806111616	-5.060036775068634	-4.6707179267511	-5.122441961481636
-0.057353793976263924	-0.07938498685685491	-0.007397869941370594	-0.2570472514330395	-0.5071153699475381	-0.3971306097662498	-0.588740710641448	-0.8283902819543121	-0.7938742466357371	-0.7327636254620504	-1.1541819645508242	-0.9924396145635205	-1.1840119669352622	-1.2449246447175066	-1.5028236772413568	-1.607660617399006	-1.6910697194987752	-1.7161459406129147	-2.0113723903853415	-1.938575580754828	-1.8789291951682288	-2.1366270738355344	-2.310452098879966	-2.2028779911370546	-2.4184626774063407	-2.583625520177795	-2.7262022370126	-2.8549880968014514	-2.660601755780304	-2.9335495283861404	-2.879801958896464	-3.061499572964186	-3.209966096105902	-3.409454596588765	-3.5027091025526853	-3.514651089657413	-3.7078578367667703	-3.842908664522818	-3.905935873427255	-4.005646245738555	-4.185009169906028	-4.122806728808907	-4.359814139874551	-4.392311018317967	-4.293022147806247	-4.518710182534708	-4.639909321651814	-4.861517356940939	-4.877897026217868	-5.181230982940949
0.09525748513938213	-0.028169025906744707	-0.29422266345411	-0.2616371853395494	-0.29345165756360087	-0.5745971312755669	-0.5727253819180688	-0.5850396484595481	-0.8758937366655577	-0.8003460548079075	-0.9289120710033119	-1.0570082064523423	-1.291073641120106	-1.322523132208995	-1.5986843055323134	-1.7288061931935392	-1.5726408621221521	-1.727317773210508	-1.9559601238697817	-1.7737746839615416	-1.946191986954989	-2.0210321340151283	-2.3409902234679496	-2.3029101965703926	-2.188592692912745	-2.6654004590940783	-2.5986075010251795	-2.9248104471975758	-2.7939667972222053	-2.866736715011154	-2.948450569034495	-3.2125536330215225	-3.2586132968635577	-3.179425331097232	-3.59965732418635	-3.6266685878199865	-3.8353493254274573	-3.866342000874915	-4.07534785183232	-3.9210995272563025	-4.087376880639989	-4.060924983396049	-4.344434461274177	-4.4392419891480985	-4.505128602378826	-4.415221207727524	-4.623213608399907	-4.977780472606692	-4.970992609599748	-5.2001703173798495
0.03052121917571439	0.01159585853844268	-0.06618853247447948	-0.16005522747843592	-0.4940526351838059	-0.5149936158595597	-0.40645759648970103	-0.8033957370489185	-0.7335233012770046	-0.9465982539771398	-1.1314304096661807	-1.0209566595385247	-1.202444990923309	-1.441127745324132	-1.491552910904006	-1.4034787302843597	-1.7178168813472399	-1.7724060420158272	-1.712363217529954	-1.9775047576628324	-2.3898111484205167	-2.197197792478368	-2.3153423103726825	-2.5080063874216463	-2.512122206470648	-2.387335053909852	-2.6408146723108836	-2.7886218923631616	-2.8680065103841983	-2.9922682031832006	-3.12036080377311	-3.14999985548534	-3.2475996795733204	-3.3646514860698398	-3.4758239270240625	-3.720359259767259	-3.584443538003588	-4.0150296090353015	-3.8152191947763687	-4.038347191519428	-3.932690081333089	-4.100149915398613	-4.417685382718586	-4.548711873380787	-4.603107011037646	-4.527103844212118	-4.7958925991438734	-4.723656272458024	-4.999638209498782	-4.764692766226263
0.021729615578199694	-0.03663438316454433	-0.37010910948126063	-0.25535063617595233	-0.6283109907643931	-0.6552914220913064	-0.5049732813995662	-0.818255221914853	-0.6640507758540584	-0.8286747129953281	-1.0520582466546933	-1.1217454046251476	-1.2594613613668808	-1.2301243761173708	-1.4489234424402102	-1.7370497965848783	-1.5224438766387391	-1.6791033736210885	-2.000075583147565	-1.9391045694964786	-1.9194381081860827	-2.342064144933826	-2.350350364219634	-2.335869983985258	-2.4229673333261474	-2.6523742678675992	-2.624770566495731	-2.8337624559360357	-2.7439195505858063	-2.9552302503738077	-3.060949300470531	-3.1663608101716476	-3.184231796238204	-3.6033921789660264	-3.6018727073550862	-3.6547002315771997	-3.5858891511338316	-3.7803801553588428	-3.7746977735999563	-4.001183595946041	-3.969252797214722	-4.200882160845522	-4.193010864127043	-4.210992048653579	-4.33556223754041	-4.514831478687885	-4.880625200021434	-4.81208485900031	-4.947950494238302	-4.988720006049975
-0.08906236301232681	-0.15240588890710638	-0.2600202300129913	-0.2919199509233952	-0.46546254612771626	-0.3368448302558176	-0.5070351074088629	-0.7420409962526371	-0.8872545658561939	-1.0509820732695843	-1.1013663889982521	-1.1917235530151802	-1.265071720939615	-1.3811376905991	-1.2989937637063116	-1.5881806575718251	-1.8256305940737318	-1.887944912485453	-1.8440024527582122	-1.8978106516885933	-2.044864582048248	-2.1396308195064466	-2.2802523268288297	-2.374023035313068	-2.3511259317336144	-2.5504014589568085	-2.77445876139731	-2.898941387952423	-2.94456828977443	-2.8382321799149106	-3.0412379159424647	-3.0733152509748374	-3.041085336869303	-3.355678420142482	-3.272349163605423	-3.580250333354024	-3.8346520737339325	-3.768730648416463	-3.9568623590566445	-3.881141679183517	-4.188756264475028	-4.083612343242275	-4.198939444078467	-4.562180006710262	-4.42687444990564	-4.550451431447698	-4.744427049081331	-4.878975573912127	-4.912833499017214	-5.081384118026525
-0.08528858078643313	-0.10688742856984994	-0.14073959551417214	-0.3994784096457407	-0.35222735476593364	-0.6007648019520868	-0.6584668941612023	-0.7014090802556828	-0.7055154146718594	-0.832462165734903	-0.9432924618952125	-1.2035665298089573	-1.2021926633426439	-1.378756614092683	-1.6210601831388554	-1.463691743213456	-1.5631668478510077	-1.6600483235865235	-1.8550370207134677	-1.885537896237282	-2.018551842546537	-2.1367564011014863	-2.1625947125054203	-2.432998374097681	-2.3659785451949804	-2.581544210584455	-2.7009689389008646	-2.7381934392439886	-2.822923433888039	-3.0725778100728864	-3.051784586735439	-3.2036488722364607	-3.153157548068688	-3.417471742180864	-3.480759064368469	-3.533170943447672	-3.853779757664247	-3.8827034150605626	-3.937320107631921	-4.013179599601362	-4.084603706670745	-4.021949526160416	-4.281531246141229	-4.408967525678629	-4.317645808043013	-4.450946641844796	-4.858826348204488	-4.851096646221169	-4.926223909694118	-4.9430689673045185
-0.1256976582305829	-0.051229494763348045	-0.04435675915748391	-0.18341322910677738	-0.5478239021298597	-0.7136109582160772	-0.6098653640381096	-0.6790769692998722	-0.945284303619885	-1.1740159020295264	-0.9966687808056984	-1.0119698327342006	-1.086461550434665	-1.365789430336924	-1.5730685353279001	-1.4332659220769701	-1.6493869609584793	-1.8010304279979883	-1.6848517969922363	-1.9010116385385274	-2.0293917229457223	-2.2032630720815494	-2.3130197271327875	-2.352726294158581	-2.2781926019808094	-2.4534165150726515	-2.627661954791997	-2.752168139643449	-2.8038743016399743	-2.8629869558998657	-3.154002451501838	-3.1565151771100726	-3.4180293370905988	-3.366432953652402	-3.3620712750421733	-3.5035614752655397	-3.6270668577455116	-3.871467455770754	-3.942245643424822	-3.841122589029467	-4.104336938077897	-4.206129527079817	-4.061492634583328	-4.217093281015559	-4.3628413021627885	-4.719972038324212	-4.717765847367364	-4.784358828506914	-4.9867341348172065	-5.121557610902145
0.1644580296583288	-0.13440899354129307	-0.3756345794435527	-0.4800373179596611	-0.3707132876333701	-0.45350587318774666	-0.578888721233287	-0.7283050996808831	-0.7431447211067365	-0.8557796140853426	-0.9114848656876027	-1.2041912258946599	-1.2144516153650413	-1.326206057950155	-1.42780291061491	-1.5383145614930325	-1.6569867750678342	-1.806135377046778	-1.716336250607861	-2.009859115412938	-1.9918904487017022	-2.179847112892782	-2.1674974772850684	-2.521846418389519	-2.287379536638923	-2.4956173464831237	-2.7520832682168566	-2.8529912305175205	-2.76004375347393	-3.1192060707807294	-3.072859128748994	-3.1631312368728346	-3.2468346625997513	-3.264820105638946	-3.5783487985633595	-3.5955801699570444	-3.7458402904452344	-3.7154550903146384	-3.96585934024581	-4.045741133642843	-3.938235003539345	-4.113521105599473	-4.343793840545457	-4.3732122142337655	-4.359495907647164	-4.731953066538143	-4.77695169727411	-4.611487924370498	-4.872924826151684	-4.99888318446074
0.011368594794565815	-0.14513871885159169	-0.2689198714277383	-0.1125721299667854	-0.43106318716607994	-0.7365622321393067	-0.5598963843007398	-0.6505530769848015	-0.8291057860114848	-1.2831832709630766	-0.9631681930653098	-1.173262766855913	-1.3761989294244825	-1.192462938793046	-1.6104034406694887	-1.5921531825503121	-1.6516634274242514	-1.7817249270848348	-1.8010341360475801	-1.8467884040653137	-1.8153342483783543	-2.112867108339516	-2.384844509190846	-2.397066584844005	-2.5494096536906157	-2.7357098779340787	-2.6012041437131073	-2.83235704086249	-2.9793552828166057	-2.9533984766728874	-2.94542843572229	-3.2282030864555593	-3.302282275871962	-3.258869031324894	-3.4150450130004693	-3.639216200132647	-3.7355356396391244	-3.8632814442010703	-3.840099859753363	-3.843990555118017	-4.069184961038245	-3.9866886725798922	-4.293342214274762	-4.405970674275231	-4.650544618652418	-4.502387070962782	-4.7711593860687405	-4.887650979200948	-4.815505511083679	-5.125661390442425
-0.07507702720663802	-0.11424289449792562	-0.11815504783607646	-0.23073029095690795	-0.41558645297507163	-0.30958214941206896	-0.498885177305092	-0.8655477918822275	-0.8429306670013212	-1.0078896114146418	-1.0779918794937136	-1.0408457666599271	-1.3212783373959214	-1.4332910304339141	-1.4778844516850071	-1.4721852580653358	-1.544952292884193	-1.6110288970340712	-1.9105944169135254	-2.0180474742429877	-2.142574139170392	-2.3155182678352926	-2.173479571713703	-2.266535406237258	-2.3335798711741873	-2.771750803470586	-2.563021591461048	-2.882070955740615	-2.9239867686436254	-2.9592885711256596	-2.989885867001428	-3.2309205585832723	-3.2201010756290422	-3.340701739159229	-3.4990103084973785	-3.5400397332967026	-3.717541506592884	-3.6443569438393886	-3.9786467908813448	-3.9172750044978337	-4.234174216287192	-4.368766837004704	-4.3704822129584295	-4.4163126522980996	-4.331035311150359	-4.6029988682215865	-4.5551002916406755	-4.673232099519039	-4.867667791089791	-4.96431955929027
-0.007370214216049848	-0.03405588513562201	-0.36248440733796866	-0.16159461421438384	-0.45779608905525626	-0.5743306849978398	-0.553271490408468	-0.5426963025161462	-0.7833206860596129	-0.8769044825488281	-0.971546898474316	-1.1271946841232492	-1.2951261892409587	-1.3637447175564152	-1.4812589779927858	-1.439579431840416	-1.573975711848497	-1.7099963053148604	-1.728819720370396	-1.7135011813133798	-2.175979070220832	-2.1880476358799963	-2.2199301216330682	-2.4598413095531373	-2.402938496748748	-2.4836223400617103	-2.424183878729151	-2.672785837194044	-2.9111000208497875	-2.913229149180923	-2.983517841229263	-3.1377045326922777	-3.3165928203171324	-3.4746971664677724	-3.4698270020288136	-3.3910104263203156	-3.682389492145611	-3.905945019309842	-3.9212436538105413	-3.982785629168401	-4.003805654799342	-4.503251946333548	-4.165177405618652	-4.414839103275408	-4.514800237156505	-4.473309376186475	-4.639130908461638	-4.806986706318037	-4.95840849069707	-4.88001408819575
-0.033637418381625095	-0.09605686003758818	-0.3228667713532877	-0.29098513011090477	-0.50628380587701	-0.43563732490733703	-0.755463417535986	-0.7333734040805904	-0.9843380780229385	-0.9475904967817488	-0.9676595090305158	-1.0306046614719895	-1.2450720788645657	-1.327152446677399	-1.5617490002744252	-1.7352814153022895	-1.5895877627313353	-1.5312900500457993	-1.9103908515598196	-1.8739825286192857	-2.069043854784878	-2.065383576479745	-2.0732493967060925	-2.2370130243755098	-2.5136947509025194	-2.4602808881856313	-2.809902405987647	-2.7880795235029243	-2.832836951061314	-2.8461668006036427	-3.193156164231879	-3.2006368166775476	-3.246650746280027	-3.3256758273114038	-3.364539721276556	-3.565561956397538	-3.494495310758747	-3.771848911484238	-3.8596735393884014	-3.8692964684169926	-4.010022301578376	-4.038585935114307	-4.3467531668819825	-4.423162590539167	-4.592979652490409	-4.587314351536372	-4.771550606981974	-4.612868743577094	-4.856523294987392	-4.968745936408703
-0.06130119616859824	-0.07116966508716105	-0.18677015049424006	-0.24837140949707368	-0.3838547439103452	-0.593712316010863	-0.4972732793981781	-0.7124542936822077	-0.6354927461155492	-1.0518260327872462	-1.0586127328331552	-1.0975944561775206	-1.1035475661985492	-1.4709479004389951	-1.5943826556164857	-1.5743033063164207	-1.670131021880872	-1.7423521375792133	-1.8293168406467606	-1.9345450588998918	-2.247591185525687	-2.105247205385344	-2.3742870669043254	-2.350144674456556	-2.6564794982513478	-2.456110108304918	-2.524162581388755	-2.7165030718234022	-2.8655060845202183	-2.955928676968712	-3.098534122573246	-3.3526992626059267	-3.4856938493137952	-3.3608828824596033	-3.412636617717983	-3.4500712277894636	-3.577680546613937	-3.7896728383601483	-3.7462816910735515	-4.1726402048158935	-4.082344653229449	-4.163143014780776	-4.031499854238582	-4.275754438855973	-4.376137279561875	-4.558605598623371	-4.747231668994035	-4.638468024508199	-4.8706950619894185	-5.029181244536106
-0.21347882420368333	-0.12637293623132773	-0.06580172063776762	-0.36275316398625385	-0.49490707982217175	-0.5110517925708655	-0.6825297460865921	-0.6328869113914805	-0.6850718949370139	-0.8497278812135208	-1.0118465997298343	-1.0488937695431744	-1.0910825988544761	-1.3267825069803352	-1.3168472394872037	-1.698268379845846	-1.7441630303466165	-1.6687261032144654	-2.0080776313581477	-1.882210609981917	-2.089786258767289	-2.146759182050938	-2.3802887723779804	-2.2287077432990996	-2.4374468509668508	-2.5858662779778334	-2.6872425230374213	-2.8801117894564294	-3.003738188643985	-2.9896987682977034	-3.126873637769046	-3.260173584975935	-3.3337791077007424	-3.376056362771154	-3.571998998725843	-3.5852263244352733	-3.706415943361443	-3.642218467387608	-3.8840982287550827	-4.007180326691708	-4.1469819423437855	-4.196155674854571	-4.219976438655728	-4.279432629411497	-4.423897658400016	-4.370946979038465	-4.704782835503468	-4.814778180625679	-4.9731723634498595	-5.017734674698271
0.07578129139570317	-0.19279245363586475	-0.19334426476013666	-0.35804012151873127	-0.29409227820102185	-0.4900968235224401	-0.5236252146131927	-0.8051004696788179	-0.8593128114620329	-0.9995649588357011	-0.8946981622931499	-1.1797726893802163	-1.1120272792489143	-1.2857948326671143	-1.3602827730709521	-1.5179704311700284	-1.8082614655932105	-1.7996119756456053	-1.707843326243685	-2.035619334492054	-2.1588034490521406	-2.229728636115018	-2.40898858835763	-2.2422162254558646	-2.515856820394447	-2.60187841592436	-2.5539472442494167	-2.7453971397537402	-2.8467112512335806	-2.994322995393414	-3.1208768263323146	-3.2515209292733185	-3.390203539892059	-3.2359242876478858	-3.331678340251585	-3.5068077702290976	-3.7366222379799003	-3.885921957872581	-3.920213124473968	-3.9898355233473275	-4.08568052176426	-4.381675544516847	-4.264346724013941	-4.305623723247824	-4.464560525465446	-4.618050695746289	-4.734824710968696	-4.792265286879407	-4.699661598794968	-5.140546099388623
0.010926927178661925	-0.20588754263353298	-0.3087807219015387	-0.3419806806870407	-0.4494595007991694	-0.39875694658966343	-0.7097585041046226	-0.8248566341426832	-0.9575322115974123	-0.9711667500075295	-1.0210886144244442	-0.9148408703739548	-1.184401162545298	-1.1955646325907527	-1.3854339890963268	-1.3117446357605653	-1.7203072267362933	-1.7173441071480944	-1.9441855330611133	-2.0374860413100553	-1.9714194629787585	-1.9865473422176612	-2.2186286871810825	-2.334789387347738	-2.439902236304436	-2.6574712088441683	-2.7570074706560153	-2.7427907614267535	-2.7518857905448035	-3.029741995541836	-3.1135460666463834	-3.2528996468128524	-3.2120516535775816	-3.294241765703064	-3.5725088310528106	-3.379809056443747	-3.6539974422925594	-3.9606556703503943	-3.947051796051355	-4.079603500367301	-4.046890629072441	-4.035813162692083	-4.352461736987916	-4.388612315364968	-4.455289371520558	-4.240709063296343	-4.7034996110108125	-4.698630246236151	-4.6797344945957295	-5.006904736505092
0.03526117287292955	-0.07720614412757415	-0.19671567839900506	-0.2616990895945134	-0.5078917982094285	-0.34947745777474415	-0.4805648180319131	-0.829990252556486	-0.5815169964413207	-0.9848106981874566	-1.1899992540183646	-0.9881372078533684	-1.3556804605466801	-1.4963616699512443	-1.6591719330788817	-1.474178998106343	-1.6286589840309953	-1.4958998243957984	-1.995944260220229	-1.8370406968101929	-2.1397578803331334	-2.0093431323366895	-2.130977343475167	-2.3721130503365844	-2.191267101794398	-2.5811472486188	-2.6707096796452783	-2.8611881578204192	-2.880365261610049	-2.9562879739188426	-3.134893429847084	-3.399772662442859	-3.337274859899233	-3.319826465418364	-3.5020811711997344	-3.4081993789655307	-3.850668759545283	-3.6911870470926846	-3.9169185541249596	-4.212956589557561	-4.128380141192665	-4.143442776893922	-4.257976127920203	-4.300804968710635	-4.413980471251247	-4.629632514642988	-4.682128732937329	-4.709698963982629	-4.748967579056086	-4.988691193806914
-0.03659494942417464	-0.05941318354583217	-0.13824405388850894	-0.26528187600840425	-0.426929207124382	-0.6503004046025078	-0.6469884504730218	-0.778704524658689	-0.8492675329031156	-0.9293809348426609	-1.266892498772613	-0.9998713825989649	-1.1040649361815662	-1.2671166609285607	-1.4302501563920726	-1.4926420209060236	-1.7360705193826884	-1.7657008519140214	-1.7265593180537426	-1.8890499641420886	-1.939172502246431	-2.0695168430205206	-2.330507141966961	-2.3686265953585925	-2.477488155489721	-2.549278828848954	-2.611153668756503	-2.575107383933656	-2.7782242104145443	-2.733031992322088	-3.229065099132396	-3.1476409772504725	-3.465376476272018	-3.6120315089522586	-3.363856690477808	-3.3895746652160743	-3.5355749179478253	-3.8544689519144724	-3.940776571774629	-3.937389338926407	-3.9345870087607966	-4.18939246669707	-4.390207430539768	-4.378346964873918	-4.333736355181991	-4.557185111175939	-4.744523628140419	-4.657749969397984	-4.919190168404949	-4.816487784258289
-0.07826601643805846	-0.1988045905432626	-0.17318965336858141	-0.20521429728228344	-0.5301437436755821	-0.506892027918471	-0.8300573890508309	-0.8017412622395461	-0.9298189186325636	-1.0704489292875081	-1.114459249451587	-1.2872994407649465	-1.1640900290702865	-1.351826781277604	-1.5581410806292504	-1.6063882215730976	-1.6938003364492311	-1.9176300493455303	-1.9124574064550381	-1.897767643500152	-2.0607982212240263	-2.0558381866638182	-2.4122906281452843	-2.373674134473215	-2.570357138298796	-2.4710614071951955	-2.5266778895210003	-2.8781123751706224	-2.676421733838494	-3.0647139399958836	-3.062179929003546	-3.0434915393740742	-3.273167069612203	-3.422371884773094	-3.663416263166543	-3.5968481550396163	-3.729830995408552	-3.702318148056933	-3.9225504078645836	-4.171059531880606	-4.100667483821506	-3.9682465744660957	-4.434227485545935	-4.3094930343569136	-4.503650750372262	-4.5994452829836865	-4.553845666044935	-4.746098629643915	-4.845540522197812	-5.005882710733347
-0.01360490521945524	-0.18300706484428603	-0.0523728983007169	-0.3525312954347488	-0.39025046049586826	-0.35133300426926073	-0.6513782824869786	-0.5617510319853932	-0.6563542638459865	-0.9406956078249771	-1.0711763996641481	-1.0109100764406969	-1.1361888128428952	-1.4674100048810428	-1.3879974955866192	-1.4246214002799356	-1.620759228387571	-1.701639141898871	-1.997714520627745	-2.0632929886400952	-2.170560195612212	-2.0923939755024414	-2.32553510714327	-2.2828869228102877	-2.498821839584565	-2.51699299987159	-2.765763193025745	-2.7552866348769407	-2.7811279414067003	-2.934758172814899	-3.037737490386163	-3.1956792209965617	-3.1433198062432983	-3.547494697619262	-3.4715220462616636	-3.6148385183345266	-3.6926684498218694	-3.9610999045781408	-3.776280868113635	-4.106627242924314	-4.052649186564727	-4.260173805084876	-4.3237112915476565	-4.366286249284004	-4.589958846028411	-4.660441394021523	-4.582338810121415	-4.672739630650427	-4.793895338867912	-5.051419662300223
0.02824766157220539	-0.09794448176340609	-0.20579362121363923	-0.2900633895092847	-0.29931428498115137	-0.5451831061855896	-0.661814974713565	-0.7132705367583959	-0.7698602575207534	-0.8531567307951632	-1.0916352711110777	-1.001437981522039	-1.2128760364370925	-1.294458976693692	-1.5228600837757904	-1.4718611882016712	-1.784587408879501	-1.7686364473577647	-1.85932618605408	-1.9835726931355375	-2.105729795140274	-2.0395434029939516	-2.3451973490698435	-2.4722956898480053	-2.4817090645998316	-2.3998609310686154	-2.6283419168242887	-2.7440929423955724	-2.77871985968949	-2.9836662042477426	-3.089774815962018	-3.1828144410040413	-3.3528966688509874	-3.275335574253833	-3.401374579121667	-3.559182372794727	-3.67760162275653	-3.8046882105338753	-3.956348273723745	-3.891012542991408	-3.881002941428717	-4.29228965329775	-4.309039053304455	-4.509974728918996	-4.573963995751971	-4.657079920594327	-4.738559881839951	-4.7908325329823125	-4.836604833160405	-5.074885661871138
-0.09954769479275366	-0.18680869628317387	-0.04080090424530422	-0.3966483334446821	-0.34096925446306897	-0.4449821322144153	-0.7789748692122292	-0.6771339906358964	-0.7651051479981571	-0.9059919056811506	-1.0292939557426737	-1.2958013662656487	-1.1503015682765056	-1.4765986730079235	-1.3027521530780026	-1.564007734966232	-1.6220792295245916	-1.7365747731835732	-1.6232733455014383	-1.8074539456959522	-1.9987478301127026	-2.249552249263119	-2.0537527974974967	-2.3656533609649064	-2.3194520233014586	-2.57626817645329	-2.6048600263451984	-2.889736065204274	-2.8990387179267207	-2.87130771743001	-2.911743030768498	-3.1152804132363108	-3.304970530530737	-3.45905568617889	-3.495664827472314	-3.5100690960477237	-3.690591359498814	-3.733007443009901	-3.741142725254235	-3.962030153924742	-4.070140813266305	-4.283841527729324	-4.333200473144333	-4.441688494404098	-4.508927105455088	-4.620164885373448	-4.590624862474337	-4.841396089400308	-5.072262827088832	-4.984569522332004
0.004227496762012773	-0.157250546836815	-0.15046228658842853	-0.3513426235789051	-0.31129091036827305	-0.502754345054091	-0.5527595283779426	-0.7576462086852684	-0.9084433267272878	-0.8569443900535212	-1.0037186020386935	-1.1905076296053085	-1.2545938456446708	-1.353672752513788	-1.396018281009372	-1.5388430325323652	-1.6392578183036415	-1.746460925945063	-1.9578926799573022	-1.98853030479434	-2.0618163038522375	-2.0797765946667295	-2.188699233355874	-2.6381414659111138	-2.316451439075448	-2.3965871694502936	-2.596723080841671	-2.7360604210920942	-2.701961909408556	-2.9722734955986163	-3.1328468681584583	-3.1030009437401453	-3.2448298032149845	-3.325522933186332	-3.4307102417046	-3.589217524923449	-3.6023583454422767	-3.559143810675184	-3.6999636731426184	-3.869918013185541	-4.114000298665241	-4.277774819453871	-4.175238389405856	-4.567107787174399	-4.440364938647367	-4.474826811632619	-4.6400342693140075	-4.749758429468133	-4.891107499870231	-5.0263966845681685
0.13547516392128847	0.05713009794800247	-0.27047164237885574	-0.3265822927084813	-0.3394617116954455	-0.5278481889255134	-0.5545239778737591	-0.6436082938002287	-0.809328538588431	-0.9512376139718385	-1.2075124460426978	-1.182239722805115	-1.2645160107779854	-1.3887815932120862	-1.3691643223303953	-1.637545428267841	-1.5292835972070644	-1.8161699978548898	-1.7547231275275788	-1.868897665181902	-2.14526056714876	-2.0003028413853583	-2.369334652647197	-2.1824675651748624	-2.4222758681013787	-2.6654900497877265	-2.667688721224199	-2.7539906514894787	-2.8956344256892064	-2.978912179289229	-2.977649823467393	-3.3695608602761853	-3.253073792235198	-3.45937936960813	-3.375244995907659	-3.5461033642494684	-3.600580277614655	-3.7798396789612907	-4.009088487383876	-4.0958892226103725	-4.134271221309999	-4.195786288614902	-4.232727159336179	-4.2933900364358895	-4.480929518228473	-4.477404247482215	-4.659196195764585	-4.808757680028342	-4.938278276321933	-5.086937257857294
-0.08454356780342002	-0.04297379954782838	-0.2590047388751732	-0.32962081558748263	-0.5337174194154717	-0.6263071336388482	-0.7623047190609995	-0.8139311823163317	-0.6375424615738504	-0.8176796871274818	-1.107030547511766	-1.1582561381251892	-1.1391307195985814	-1.2490549396417303	-1.2883920003371703	-1.7269524232423812	-1.54339868033298	-1.732699507350916	-1.8635593851798207	-1.813319918188902	-2.070623846165164	-2.1846020171815512	-2.3299029121655894	-2.3522119053373185	-2.4444323266508894	-2.754479793295342	-2.6535887184052545	-2.6277737334825852	-2.9279206142868954	-2.8648900868578258	-3.0244919199652567	-2.995198261256154	-3.277533726672	-3.5344395807871254	-3.6828282450309353	-3.5646024631347313	-3.8705685422021388	-3.8032516911408676	-3.9679222092795663	-4.143156194764001	-4.1357195172008465	-4.025299629679138	-4.222414002791762	-4.253192176952466	-4.4125705773724775	-4.531241376894439	-4.624445693682995	-4.6744964191640035	-4.98868218789618	-5.064826167240371
0.1556539532452762	-0.17685918617971508	-0.20409912863554985	-0.3609125869508413	-0.2678564708222758	-0.5345054932510201	-0.7592083584371714	-0.4794948132086281	-0.8241599942498515	-0.878440617411799	-0.9859568375038581	-1.2318672292229378	-1.2485412868543249	-1.4218396438329683	-1.58262048661488	-1.6070306428022447	-1.6995377592298262	-1.7695390752628861	-1.70897136346143	-1.9855830825116711	-2.0169011061554416	-2.0409475845504956	-2.2712886416871187	-2.356254239712303	-2.475386169104902	-2.726030530388585	-2.659410336003552	-2.5460065885791927	-2.9995408707156734	-2.8959468019139867	-3.0874068441978713	-3.287460019042248	-3.248086195128532	-3.418634304369842	-3.2899457891341295	-3.5867857195472252	-3.7106205618489656	-3.8632538757076524	-3.7447752967511514	-4.13015016691513	-3.9716313610810436	-4.153774922234915	-4.4337634885455435	-4.3301402687453425	-4.534368207180254	-4.705328111656393	-4.663216175517491	-4.980430718851151	-4.8015769576702665	-4.943853374374386
-0.08875952952297284	-0.15260423324759537	-0.09647964570832163	-0.16227984800167963	-0.3620528858224497	-0.6861551610861997	-0.6638113152585111	-0.8422701794512601	-0.87670467655253	-1.0170489355975665	-0.9982327265266518	-1.2798984132395663	-1.338701166622071	-1.4092521033497007	-1.6817306596637411	-1.5383123751776928	-1.7097034607949624	-1.7948146524038446	-1.739562740799337	-1.789508614547637	-2.1619661404006285	-2.089075767416462	-2.0842464674891437	-2.3963435499246235	-2.355313227476068	-2.530826062534384	-2.48991614602474	-2.6720736687035846	-2.717836991589247	-3.039161496335972	-3.0856337597710657	-3.0408126182753668	-3.308861314357537	-3.573780546652652	-3.605562561191198	-3.5683690044855143	-3.5895215068363564	-3.8464111513884967	-3.8818421885648706	-3.9492015741185407	-4.08660122650165	-4.2546877949038135	-4.241386311889847	-4.336315705945679	-4.5063992186764095	-4.553001641838126	-4.706158160624127	-4.814348650404363	-4.814356906159659	-4.963493430969092
