2.5573866e-01   2.0030530e-01   1.2582983e-01   2.0536838e-03  -1.3483712e-01  -2.7106479e-01  -3.9837079e-01  -4.9028781e-01  -5.5428427e-01  -6.0600549e-01  -6.5675591e-01  -7.1817468e-01  -8.0976533e-01  -9.3670262e-01  -1.0627026e+00  -1.1615621e+00  -1.2459768e+00  -1.3565780e+00  -1.4915880e+00  -1.6086128e+00  -1.6968701e+00  -1.7927008e+00  -1.9123625e+00  -2.0169382e+00  -2.0885189e+00  -2.1779999e+00  -2.3102330e+00  -2.4338022e+00  -2.5231259e+00  -2.6125512e+00  -2.7019950e+00  -2.7830776e+00  -2.8661252e+00  -2.9636910e+00  -3.0811346e+00  -3.1953247e+00  -3.2869327e+00  -3.3810400e+00  -3.4974299e+00  -3.6155983e+00  -3.7325696e+00  -3.8445333e+00  -3.9392058e+00  -4.0312349e+00  -4.1318419e+00  -4.2347326e+00  -4.3215802e+00  -4.4003865e+00  -4.4716441e+00  -4.5497295e+00  -4.6438077e+00  -4.7491206e+00  -4.8608762e+00  -4.9827458e+00  -5.0989617e+00  -5.1936391e+00  -5.2911025e+00  -5.4234329e+00  -5.5869354e+00  -5.7220377e+00  -5.8038940e+00  -5.8598029e+00  -5.9283977e+00  -6.0247247e+00  -6.1198138e+00  -6.1933054e+00  -6.2820323e+00  -6.3957021e+00  -6.4928431e+00  -6.5670230e+00  -6.6509489e+00  -6.7514330e+00  -6.8686085e+00  -7.0192357e+00  -7.1919313e+00  -7.3383205e+00  -7.4386725e+00  -7.5045766e+00  -7.5594181e+00  -7.6251684e+00  -7.7142439e+00  -7.8176371e+00  -7.9194088e+00  -8.0125922e+00  -8.0981942e+00  -8.1829976e+00  -8.2882243e+00  -8.3982937e+00  -8.4968622e+00  -8.5965697e+00  -8.6973478e+00  -8.7860023e+00  -8.8841996e+00  -9.0275796e+00  -9.2006148e+00  -9.3407045e+00  -9.4249887e+00  -9.4719811e+00  -9.5231691e+00  -9.6108056e+00
2.3084682e-01   1.6129416e-01   8.7757823e-02  -1.5738737e-02  -1.3280625e-01  -2.5893360e-01  -3.7771081e-01  -4.6138210e-01  -5.2142040e-01  -5.7497672e-01  -6.3017725e-01  -6.8974164e-01  -7.6943939e-01  -8.9158639e-01  -1.0364395e+00  -1.1656029e+00  -1.2696701e+00  -1.3691202e+00  -1.4706432e+00  -1.5696784e+00  -1.6675402e+00  -1.7697297e+00  -1.8815778e+00  -1.9850022e+00  -2.0668223e+00  -2.1667467e+00  -2.2953632e+00  -2.4044023e+00  -2.4814539e+00  -2.5734742e+00  -2.6769323e+00  -2.7721625e+00  -2.8666516e+00  -2.9693033e+00  -3.0821035e+00  -3.1998878e+00  -3.3145019e+00  -3.4379772e+00  -3.5659114e+00  -3.6729417e+00  -3.7574996e+00  -3.8328397e+00  -3.9086213e+00  -4.0056378e+00  -4.1285729e+00  -4.2524796e+00  -4.3567978e+00  -4.4483403e+00  -4.5217414e+00  -4.5871171e+00  -4.6651800e+00  -4.7576331e+00  -4.8661667e+00  -4.9879778e+00  -5.0930592e+00  -5.1752559e+00  -5.2730360e+00  -5.4101943e+00  -5.5738985e+00  -5.7062545e+00  -5.7907356e+00  -5.8469992e+00  -5.9082034e+00  -5.9953117e+00  -6.0903905e+00  -6.1712093e+00  -6.2683925e+00  -6.3988309e+00  -6.5240462e+00  -6.6148302e+00  -6.6973013e+00  -6.7939056e+00  -6.9077117e+00  -7.0380476e+00  -7.1776139e+00  -7.3030314e+00  -7.4078444e+00  -7.4933306e+00  -7.5704904e+00  -7.6516171e+00  -7.7446961e+00  -7.8447602e+00  -7.9460408e+00  -8.0362467e+00  -8.1192174e+00  -8.2121850e+00  -8.3261692e+00  -8.4252633e+00  -8.4915576e+00  -8.5567194e+00  -8.6401311e+00  -8.7292482e+00  -8.8384305e+00  -8.9950289e+00  -9.1778932e+00  -9.3234761e+00  -9.4129907e+00  -9.4780738e+00  -9.5656195e+00  -9.6810108e+00
2.1961741e-01   1.2837256e-01   4.9708585e-02  -2.9114589e-02  -1.1961566e-01  -2.3517375e-01  -3.5452883e-01  -4.4692443e-01  -5.1860466e-01  -5.7858550e-01  -6.3184314e-01  -6.8754802e-01  -7.6064534e-01  -8.7378997e-01  -1.0188570e+00  -1.1659883e+00  -1.2951123e+00  -1.3956387e+00  -1.4704524e+00  -1.5481209e+00  -1.6423970e+00  -1.7380217e+00  -1.8365496e+00  -1.9478168e+00  -2.0634723e+00  -2.1869969e+00  -2.3058348e+00  -2.3931685e+00  -2.4604821e+00  -2.5543920e+00  -2.6685619e+00  -2.7755009e+00  -2.8705708e+00  -2.9621310e+00  -3.0651179e+00  -3.1987233e+00  -3.3496159e+00  -3.5000506e+00  -3.6256834e+00  -3.7098722e+00  -3.7562346e+00  -3.7984414e+00  -3.8671312e+00  -3.9739952e+00  -4.1113564e+00  -4.2473822e+00  -4.3649788e+00  -4.4694463e+00  -4.5445817e+00  -4.5911704e+00  -4.6460147e+00  -4.7261399e+00  -4.8389901e+00  -4.9758406e+00  -5.0961581e+00  -5.1894370e+00  -5.2867142e+00  -5.4030010e+00  -5.5315350e+00  -5.6381245e+00  -5.7203525e+00  -5.7893559e+00  -5.8705412e+00  -5.9796013e+00  -6.0935909e+00  -6.1843499e+00  -6.2714353e+00  -6.3874134e+00  -6.5187163e+00  -6.6244780e+00  -6.7112282e+00  -6.8099370e+00  -6.9276266e+00  -7.0464463e+00  -7.1636171e+00  -7.2784073e+00  -7.3858765e+00  -7.4776416e+00  -7.5658775e+00  -7.6613636e+00  -7.7569798e+00  -7.8483696e+00  -7.9387512e+00  -8.0244726e+00  -8.1172701e+00  -8.2266886e+00  -8.3494579e+00  -8.4464253e+00  -8.5035912e+00  -8.5601386e+00  -8.6396168e+00  -8.7253584e+00  -8.8322525e+00  -8.9864010e+00  -9.1656152e+00  -9.3109247e+00  -9.4038124e+00  -9.4794181e+00  -9.5818814e+00  -9.7031906e+00
2.1266881e-01   1.1801187e-01   4.9964617e-02  -3.4462405e-03  -7.5867700e-02  -1.9133510e-01  -3.2267808e-01  -4.4274231e-01  -5.4716140e-01  -6.2217108e-01  -6.6811531e-01  -7.1710758e-01  -7.9140537e-01  -8.9636966e-01  -1.0244087e+00  -1.1674922e+00  -1.3124727e+00  -1.4259755e+00  -1.4957905e+00  -1.5573510e+00  -1.6363495e+00  -1.7232551e+00  -1.8199630e+00  -1.9463834e+00  -2.0954413e+00  -2.2337038e+00  -2.3337159e+00  -2.4004409e+00  -2.4667764e+00  -2.5609782e+00  -2.6731231e+00  -2.7836740e+00  -2.8787702e+00  -2.9608086e+00  -3.0579312e+00  -3.2027004e+00  -3.3700649e+00  -3.5239125e+00  -3.6406651e+00  -3.7175945e+00  -3.7545713e+00  -3.7865277e+00  -3.8518473e+00  -3.9551784e+00  -4.0850631e+00  -4.2203835e+00  -4.3500050e+00  -4.4656797e+00  -4.5346356e+00  -4.5650886e+00  -4.6103026e+00  -4.6920576e+00  -4.8189662e+00  -4.9828823e+00  -5.1373598e+00  -5.2510333e+00  -5.3374974e+00  -5.4197251e+00  -5.5105100e+00  -5.5968123e+00  -5.6811950e+00  -5.7689090e+00  -5.8723456e+00  -5.9948576e+00  -6.1122939e+00  -6.2041926e+00  -6.2783891e+00  -6.3714858e+00  -6.4909409e+00  -6.5986467e+00  -6.6897010e+00  -6.7971271e+00  -6.9289132e+00  -7.0533480e+00  -7.1664274e+00  -7.2767298e+00  -7.3750272e+00  -7.4570997e+00  -7.5468427e+00  -7.6575325e+00  -7.7620101e+00  -7.8446174e+00  -7.9148299e+00  -7.9901209e+00  -8.0933903e+00  -8.2187459e+00  -8.3471787e+00  -8.4456011e+00  -8.5095799e+00  -8.5797695e+00  -8.6707311e+00  -8.7542348e+00  -8.8474156e+00  -8.9864262e+00  -9.1558877e+00  -9.2970992e+00  -9.3886680e+00  -9.4730969e+00  -9.5881666e+00  -9.7147796e+00
2.2625669e-01   1.4324864e-01   8.9445478e-02   4.2893093e-02  -3.0056876e-02  -1.4764481e-01  -2.8107030e-01  -4.1979291e-01  -5.5622127e-01  -6.5599725e-01  -7.0956905e-01  -7.6191497e-01  -8.4541032e-01  -9.4430791e-01  -1.0490078e+00  -1.1765576e+00  -1.3294308e+00  -1.4674168e+00  -1.5572585e+00  -1.6173405e+00  -1.6805618e+00  -1.7584979e+00  -1.8582529e+00  -1.9918293e+00  -2.1461786e+00  -2.2707152e+00  -2.3457805e+00  -2.4058414e+00  -2.4852427e+00  -2.5841243e+00  -2.6865130e+00  -2.7911200e+00  -2.8923993e+00  -2.9825031e+00  -3.0851336e+00  -3.2276926e+00  -3.3745921e+00  -3.4960924e+00  -3.5953730e+00  -3.6858948e+00  -3.7527993e+00  -3.8059480e+00  -3.8712208e+00  -3.9590383e+00  -4.0721248e+00  -4.2027405e+00  -4.3388070e+00  -4.4556445e+00  -4.5121911e+00  -4.5353215e+00  -4.5847375e+00  -4.6776001e+00  -4.8251918e+00  -5.0175064e+00  -5.1991311e+00  -5.3231830e+00  -5.3907637e+00  -5.4465705e+00  -5.5283592e+00  -5.6200992e+00  -5.7095248e+00  -5.8017222e+00  -5.9036476e+00  -6.0123274e+00  -6.1120291e+00  -6.1962096e+00  -6.2680784e+00  -6.3623041e+00  -6.4865209e+00  -6.6000770e+00  -6.6920477e+00  -6.7946689e+00  -6.9228988e+00  -7.0476697e+00  -7.1601505e+00  -7.2672961e+00  -7.3588792e+00  -7.4354487e+00  -7.5245847e+00  -7.6439768e+00  -7.7613611e+00  -7.8463810e+00  -7.9047549e+00  -7.9685866e+00  -8.0708883e+00  -8.2047946e+00  -8.3387564e+00  -8.4335529e+00  -8.4929172e+00  -8.5724412e+00  -8.6821698e+00  -8.7732038e+00  -8.8508460e+00  -8.9658793e+00  -9.1246898e+00  -9.2657799e+00  -9.3554223e+00  -9.4444445e+00  -9.5706669e+00  -9.7069195e+00
2.4958956e-01   1.7679450e-01   1.2404855e-01   6.3328242e-02  -1.8190313e-02  -1.2728409e-01  -2.4498883e-01  -3.7589757e-01  -5.1638786e-01  -6.3466727e-01  -7.1477031e-01  -7.8605469e-01  -8.7845905e-01  -9.6761877e-01  -1.0534215e+00  -1.1724105e+00  -1.3315314e+00  -1.4921217e+00  -1.6098924e+00  -1.6847016e+00  -1.7450176e+00  -1.8174533e+00  -1.9182633e+00  -2.0524285e+00  -2.1965925e+00  -2.2974650e+00  -2.3529163e+00  -2.4135187e+00  -2.5023199e+00  -2.6019697e+00  -2.6937937e+00  -2.7884696e+00  -2.8990085e+00  -3.0083819e+00  -3.1168057e+00  -3.2415828e+00  -3.3532109e+00  -3.4409581e+00  -3.5287920e+00  -3.6361333e+00  -3.7396317e+00  -3.8258639e+00  -3.8986154e+00  -3.9739224e+00  -4.0758147e+00  -4.2041589e+00  -4.3409386e+00  -4.4520694e+00  -4.5010584e+00  -4.5275981e+00  -4.5860394e+00  -4.6860503e+00  -4.8426680e+00  -5.0438225e+00  -5.2278499e+00  -5.3451306e+00  -5.3923691e+00  -5.4357546e+00  -5.5300237e+00  -5.6408872e+00  -5.7330670e+00  -5.8156485e+00  -5.9030310e+00  -5.9959101e+00  -6.0863523e+00  -6.1690007e+00  -6.2496756e+00  -6.3647429e+00  -6.5097181e+00  -6.6379254e+00  -6.7304777e+00  -6.8121358e+00  -6.9117049e+00  -7.0241212e+00  -7.1378213e+00  -7.2489549e+00  -7.3475046e+00  -7.4281137e+00  -7.5103572e+00  -7.6177660e+00  -7.7349555e+00  -7.8289400e+00  -7.8988277e+00  -7.9725924e+00  -8.0782107e+00  -8.2178567e+00  -8.3578436e+00  -8.4473049e+00  -8.4892488e+00  -8.5571667e+00  -8.6725791e+00  -8.7790039e+00  -8.8551492e+00  -8.9479354e+00  -9.0911322e+00  -9.2347777e+00  -9.3321312e+00  -9.4257489e+00  -9.5514518e+00  -9.6873781e+00
2.6460313e-01   1.9432919e-01   1.3387362e-01   5.2792359e-02  -3.5391941e-02  -1.2492118e-01  -2.1599164e-01  -3.2184235e-01  -4.4310291e-01  -5.6258052e-01  -6.6490932e-01  -7.5426069e-01  -8.5191298e-01  -9.3998163e-01  -1.0268798e+00  -1.1482379e+00  -1.3030542e+00  -1.4659168e+00  -1.6022003e+00  -1.7015831e+00  -1.7746739e+00  -1.8512360e+00  -1.9579053e+00  -2.0974548e+00  -2.2362309e+00  -2.3242585e+00  -2.3710252e+00  -2.4288811e+00  -2.5150415e+00  -2.6102271e+00  -2.6968605e+00  -2.7846239e+00  -2.9003591e+00  -3.0254932e+00  -3.1328178e+00  -3.2312115e+00  -3.3165783e+00  -3.3995400e+00  -3.4977311e+00  -3.6111981e+00  -3.7170200e+00  -3.8090997e+00  -3.8855803e+00  -3.9585257e+00  -4.0575594e+00  -4.1867199e+00  -4.3276714e+00  -4.4412783e+00  -4.4983238e+00  -4.5402669e+00  -4.6132445e+00  -4.7170399e+00  -4.8635509e+00  -5.0464437e+00  -5.2131439e+00  -5.3144729e+00  -5.3455859e+00  -5.3850851e+00  -5.4878655e+00  -5.6045304e+00  -5.6935506e+00  -5.7740119e+00  -5.8658146e+00  -5.9698818e+00  -6.0764903e+00  -6.1674050e+00  -6.2525262e+00  -6.3766176e+00  -6.5307210e+00  -6.6687233e+00  -6.7656903e+00  -6.8312440e+00  -6.9011021e+00  -6.9972092e+00  -7.1127056e+00  -7.2330109e+00  -7.3483475e+00  -7.4433653e+00  -7.5231541e+00  -7.6088005e+00  -7.7081042e+00  -7.7981388e+00  -7.8816239e+00  -7.9819102e+00  -8.1071901e+00  -8.2568538e+00  -8.4015202e+00  -8.4916860e+00  -8.5233635e+00  -8.5690331e+00  -8.6689808e+00  -8.7861644e+00  -8.8768190e+00  -8.9624639e+00  -9.0893822e+00  -9.2297600e+00  -9.3393886e+00  -9.4384847e+00  -9.5516877e+00  -9.6730599e+00
2.7670794e-01   2.0168090e-01   1.3239721e-01   3.7924565e-02  -5.7736989e-02  -1.3868722e-01  -2.1781646e-01  -3.0823645e-01  -4.0912866e-01  -5.1096602e-01  -6.0621555e-01  -6.9337532e-01  -7.9275362e-01  -8.9420062e-01  -9.9951760e-01  -1.1302680e+00  -1.2784266e+00  -1.4299315e+00  -1.5696244e+00  -1.6906991e+00  -1.7842803e+00  -1.8721709e+00  -1.9861835e+00  -2.1268551e+00  -2.2608420e+00  -2.3458944e+00  -2.3885024e+00  -2.4347191e+00  -2.5090838e+00  -2.6017972e+00  -2.6966865e+00  -2.7895694e+00  -2.9084885e+00  -3.0402155e+00  -3.1392157e+00  -3.2067355e+00  -3.2719377e+00  -3.3705923e+00  -3.5001961e+00  -3.6201840e+00  -3.7057054e+00  -3.7767684e+00  -3.8453849e+00  -3.9212810e+00  -4.0244447e+00  -4.1555445e+00  -4.2984844e+00  -4.4154626e+00  -4.4906784e+00  -4.5619020e+00  -4.6607998e+00  -4.7713803e+00  -4.8959450e+00  -5.0461074e+00  -5.1933251e+00  -5.2845327e+00  -5.3121740e+00  -5.3534731e+00  -5.4489545e+00  -5.5488517e+00  -5.6309377e+00  -5.7277034e+00  -5.8483089e+00  -5.9749322e+00  -6.0950114e+00  -6.1915661e+00  -6.2763893e+00  -6.3945826e+00  -6.5378299e+00  -6.6643322e+00  -6.7541670e+00  -6.8133945e+00  -6.8748712e+00  -6.9672147e+00  -7.0855275e+00  -7.2141154e+00  -7.3504650e+00  -7.4704945e+00  -7.5613786e+00  -7.6344899e+00  -7.7119134e+00  -7.7811857e+00  -7.8557976e+00  -7.9702952e+00  -8.1189163e+00  -8.2832364e+00  -8.4336366e+00  -8.5320797e+00  -8.5702040e+00  -8.6036444e+00  -8.6833890e+00  -8.8033355e+00  -8.9129800e+00  -9.0027394e+00  -9.1127571e+00  -9.2376977e+00  -9.3499813e+00  -9.4469153e+00  -9.5426078e+00  -9.6466979e+00
3.1911304e-01   2.2638609e-01   1.3978653e-01   3.9292364e-02  -6.3280470e-02  -1.5672069e-01  -2.5184849e-01  -3.4714407e-01  -4.3583217e-01  -5.1297710e-01  -5.8460349e-01  -6.6081697e-01  -7.6227072e-01  -8.7619112e-01  -9.9429561e-01  -1.1340693e+00  -1.2892738e+00  -1.4366059e+00  -1.5700366e+00  -1.6966653e+00  -1.8002530e+00  -1.8909916e+00  -1.9976052e+00  -2.1233318e+00  -2.2509994e+00  -2.3475595e+00  -2.4008875e+00  -2.4405811e+00  -2.5006755e+00  -2.5905707e+00  -2.7022048e+00  -2.8119770e+00  -2.9331791e+00  -3.0566723e+00  -3.1384379e+00  -3.1793699e+00  -3.2300826e+00  -3.3434859e+00  -3.5025975e+00  -3.6343263e+00  -3.7147937e+00  -3.7792234e+00  -3.8416731e+00  -3.9138775e+00  -4.0168382e+00  -4.1496465e+00  -4.2910270e+00  -4.4056529e+00  -4.4961400e+00  -4.5952542e+00  -4.7129216e+00  -4.8210806e+00  -4.9190650e+00  -5.0411485e+00  -5.1796916e+00  -5.2731235e+00  -5.3119525e+00  -5.3632107e+00  -5.4505122e+00  -5.5348761e+00  -5.6151821e+00  -5.7316794e+00  -5.8752298e+00  -6.0031367e+00  -6.1111995e+00  -6.2099335e+00  -6.3063372e+00  -6.4213150e+00  -6.5413513e+00  -6.6365496e+00  -6.7039195e+00  -6.7619243e+00  -6.8384458e+00  -6.9498516e+00  -7.0782741e+00  -7.2118401e+00  -7.3595764e+00  -7.4937858e+00  -7.5955213e+00  -7.6710644e+00  -7.7369342e+00  -7.7818774e+00  -7.8344368e+00  -7.9453241e+00  -8.1055628e+00  -8.2816737e+00  -8.4375070e+00  -8.5412023e+00  -8.5901802e+00  -8.6285079e+00  -8.7037976e+00  -8.8263073e+00  -8.9502494e+00  -9.0462443e+00  -9.1419506e+00  -9.2500919e+00  -9.3575642e+00  -9.4437555e+00  -9.5209873e+00  -9.6115757e+00
3.8671028e-01   2.6468861e-01   1.5361594e-01   5.3510285e-02  -4.7405592e-02  -1.5504423e-01  -2.7163876e-01  -3.7865483e-01  -4.6351579e-01  -5.2354682e-01  -5.7874047e-01  -6.5524912e-01  -7.6384871e-01  -8.8031885e-01  -1.0000608e+00  -1.1483367e+00  -1.3179317e+00  -1.4626963e+00  -1.5796484e+00  -1.6957789e+00  -1.7954782e+00  -1.8742271e+00  -1.9536873e+00  -2.0545217e+00  -2.1835545e+00  -2.3105885e+00  -2.3985059e+00  -2.4527700e+00  -2.5089273e+00  -2.5949486e+00  -2.7164750e+00  -2.8387519e+00  -2.9547797e+00  -3.0573611e+00  -3.1253965e+00  -3.1653297e+00  -3.2177021e+00  -3.3289962e+00  -3.4843024e+00  -3.6162304e+00  -3.7159030e+00  -3.8108952e+00  -3.8867373e+00  -3.9512923e+00  -4.0444968e+00  -4.1717618e+00  -4.3028536e+00  -4.4108758e+00  -4.5122777e+00  -4.6284163e+00  -4.7439548e+00  -4.8329863e+00  -4.9082058e+00  -5.0170593e+00  -5.1549860e+00  -5.2560425e+00  -5.3129503e+00  -5.3773316e+00  -5.4651775e+00  -5.5555514e+00  -5.6516076e+00  -5.7852438e+00  -5.9312186e+00  -6.0384416e+00  -6.1197071e+00  -6.2158975e+00  -6.3230201e+00  -6.4286796e+00  -6.5190216e+00  -6.5888349e+00  -6.6482765e+00  -6.7214517e+00  -6.8276029e+00  -6.9655323e+00  -7.1025779e+00  -7.2358993e+00  -7.3798669e+00  -7.5035950e+00  -7.5975302e+00  -7.6755820e+00  -7.7405634e+00  -7.7803609e+00  -7.8318447e+00  -7.9437874e+00  -8.1032037e+00  -8.2752457e+00  -8.4265806e+00  -8.5296167e+00  -8.5894856e+00  -8.6450875e+00  -8.7308305e+00  -8.8546038e+00  -8.9803729e+00  -9.0772553e+00  -9.1638180e+00  -9.2642383e+00  -9.3723779e+00  -9.4520965e+00  -9.5138009e+00  -9.5926314e+00
4.2819768e-01   2.8259214e-01   1.5402341e-01   5.7215574e-02  -3.3321817e-02  -1.3676396e-01  -2.5533912e-01  -3.6787067e-01  -4.5748480e-01  -5.1793169e-01  -5.7620448e-01  -6.7017294e-01  -7.9315930e-01  -9.0452582e-01  -1.0139529e+00  -1.1609268e+00  -1.3325915e+00  -1.4620700e+00  -1.5490436e+00  -1.6443948e+00  -1.7371103e+00  -1.8049244e+00  -1.8631368e+00  -1.9516129e+00  -2.0899833e+00  -2.2479375e+00  -2.3770112e+00  -2.4611369e+00  -2.5268038e+00  -2.6103491e+00  -2.7300976e+00  -2.8524789e+00  -2.9569844e+00  -3.0397458e+00  -3.1090762e+00  -3.1737524e+00  -3.2420910e+00  -3.3371502e+00  -3.4575529e+00  -3.5727002e+00  -3.6928199e+00  -3.8248807e+00  -3.9218862e+00  -3.9827690e+00  -4.0646867e+00  -4.1817084e+00  -4.2983809e+00  -4.4032548e+00  -4.5169597e+00  -4.6415553e+00  -4.7442601e+00  -4.8130616e+00  -4.8815248e+00  -4.9914939e+00  -5.1265004e+00  -5.2298955e+00  -5.3005091e+00  -5.3675610e+00  -5.4522438e+00  -5.5620522e+00  -5.6945007e+00  -5.8525065e+00  -5.9923722e+00  -6.0754946e+00  -6.1360558e+00  -6.2272441e+00  -6.3346335e+00  -6.4251825e+00  -6.4921611e+00  -6.5542099e+00  -6.6203378e+00  -6.7112408e+00  -6.8402354e+00  -6.9924514e+00  -7.1299503e+00  -7.2577065e+00  -7.3890466e+00  -7.4945653e+00  -7.5744449e+00  -7.6497450e+00  -7.7179627e+00  -7.7763769e+00  -7.8528070e+00  -7.9722610e+00  -8.1220371e+00  -8.2802655e+00  -8.4247933e+00  -8.5335547e+00  -8.6106661e+00  -8.6863007e+00  -8.7810077e+00  -8.8930406e+00  -8.9995041e+00  -9.0849746e+00  -9.1642236e+00  -9.2619553e+00  -9.3774819e+00  -9.4663439e+00  -9.5322907e+00  -9.6117843e+00
4.4262359e-01   2.8129231e-01   1.3321126e-01   2.8615022e-02  -5.2384679e-02  -1.4095294e-01  -2.5111238e-01  -3.6401392e-01  -4.5373932e-01  -5.1278898e-01  -5.7697109e-01  -6.9031553e-01  -8.2801772e-01  -9.3624496e-01  -1.0354560e+00  -1.1704711e+00  -1.3231026e+00  -1.4223682e+00  -1.4744033e+00  -1.5474651e+00  -1.6405520e+00  -1.7187537e+00  -1.7862713e+00  -1.8854691e+00  -2.0321326e+00  -2.1985854e+00  -2.3474099e+00  -2.4526466e+00  -2.5283730e+00  -2.6117875e+00  -2.7280144e+00  -2.8501366e+00  -2.9524008e+00  -3.0305837e+00  -3.1105902e+00  -3.2034288e+00  -3.2905847e+00  -3.3693476e+00  -3.4534254e+00  -3.5510287e+00  -3.6757539e+00  -3.8162349e+00  -3.9160358e+00  -3.9712451e+00  -4.0434678e+00  -4.1525593e+00  -4.2640789e+00  -4.3742028e+00  -4.5004686e+00  -4.6316840e+00  -4.7317621e+00  -4.7985164e+00  -4.8768491e+00  -4.9896095e+00  -5.1113130e+00  -5.2101441e+00  -5.2909590e+00  -5.3570619e+00  -5.4377223e+00  -5.5655810e+00  -5.7326804e+00  -5.9090786e+00  -6.0365441e+00  -6.1029697e+00  -6.1640502e+00  -6.2649683e+00  -6.3792827e+00  -6.4627714e+00  -6.5139420e+00  -6.5658006e+00  -6.6256861e+00  -6.7139744e+00  -6.8434707e+00  -6.9892241e+00  -7.1170856e+00  -7.2380098e+00  -7.3638637e+00  -7.4693240e+00  -7.5465618e+00  -7.6136053e+00  -7.6807426e+00  -7.7634721e+00  -7.8683450e+00  -7.9896471e+00  -8.1230115e+00  -8.2668867e+00  -8.4081353e+00  -8.5289260e+00  -8.6296381e+00  -8.7270127e+00  -8.8291827e+00  -8.9293893e+00  -9.0163310e+00  -9.0899260e+00  -9.1618857e+00  -9.2519387e+00  -9.3675522e+00  -9.4714461e+00  -9.5625368e+00  -9.6607773e+00
4.3929611e-01   2.6987448e-01   9.8623433e-02  -2.5898224e-02  -1.0574958e-01  -1.8272550e-01  -2.8582656e-01  -3.9556171e-01  -4.7709409e-01  -5.2568090e-01  -5.8589243e-01  -7.0209519e-01  -8.4274949e-01  -9.5617834e-01  -1.0609275e+00  -1.1824529e+00  -1.2969662e+00  -1.3573733e+00  -1.3867244e+00  -1.4521823e+00  -1.5611368e+00  -1.6713156e+00  -1.7666787e+00  -1.8829983e+00  -2.0293416e+00  -2.1802471e+00  -2.3175765e+00  -2.4231695e+00  -2.5024860e+00  -2.5855874e+00  -2.7038059e+00  -2.8415267e+00  -2.9656952e+00  -3.0589899e+00  -3.1505211e+00  -3.2619225e+00  -3.3640152e+00  -3.4335045e+00  -3.4949850e+00  -3.5817522e+00  -3.7000459e+00  -3.8255566e+00  -3.9086332e+00  -3.9536656e+00  -4.0181263e+00  -4.1210639e+00  -4.2340075e+00  -4.3512776e+00  -4.4838052e+00  -4.6161076e+00  -4.7215473e+00  -4.8003665e+00  -4.8904488e+00  -4.9990875e+00  -5.1051267e+00  -5.2001271e+00  -5.2891013e+00  -5.3604609e+00  -5.4483270e+00  -5.5862641e+00  -5.7591399e+00  -5.9248005e+00  -6.0262781e+00  -6.0797582e+00  -6.1576613e+00  -6.2865743e+00  -6.4257403e+00  -6.5227544e+00  -6.5740375e+00  -6.6167481e+00  -6.6652268e+00  -6.7380113e+00  -6.8452330e+00  -6.9614602e+00  -7.0668505e+00  -7.1791412e+00  -7.3065812e+00  -7.4287983e+00  -7.5198905e+00  -7.5844589e+00  -7.6487484e+00  -7.7444884e+00  -7.8688969e+00  -7.9953301e+00  -8.1161250e+00  -8.2420958e+00  -8.3686840e+00  -8.4877844e+00  -8.6018747e+00  -8.7126903e+00  -8.8214127e+00  -8.9250288e+00  -9.0131834e+00  -9.0866641e+00  -9.1533311e+00  -9.2342931e+00  -9.3452827e+00  -9.4603531e+00  -9.5747791e+00  -9.6928234e+00
4.1109029e-01   2.5233494e-01   7.5480786e-02  -7.1877713e-02  -1.7114104e-01  -2.5294016e-01  -3.5089288e-01  -4.5423562e-01  -5.3312485e-01  -5.7608006e-01  -6.2375987e-01  -7.2025861e-01  -8.4254811e-01  -9.5412615e-01  -1.0681344e+00  -1.1809093e+00  -1.2606831e+00  -1.2973789e+00  -1.3327462e+00  -1.4157195e+00  -1.5537164e+00  -1.6987719e+00  -1.8152828e+00  -1.9339887e+00  -2.0627204e+00  -2.1816379e+00  -2.2926147e+00  -2.3933417e+00  -2.4750044e+00  -2.5501306e+00  -2.6628680e+00  -2.8169785e+00  -2.9724633e+00  -3.0919788e+00  -3.1965111e+00  -3.3195710e+00  -3.4358169e+00  -3.5086150e+00  -3.5577243e+00  -3.6290919e+00  -3.7352922e+00  -3.8451893e+00  -3.9181967e+00  -3.9684184e+00  -4.0371091e+00  -4.1344653e+00  -4.2433908e+00  -4.3582796e+00  -4.4853138e+00  -4.6097015e+00  -4.7192574e+00  -4.8141300e+00  -4.9130132e+00  -5.0166257e+00  -5.1136729e+00  -5.2073678e+00  -5.3023935e+00  -5.3857285e+00  -5.4851185e+00  -5.6166527e+00  -5.7628360e+00  -5.8923813e+00  -5.9649683e+00  -6.0148122e+00  -6.1129345e+00  -6.2648232e+00  -6.4239514e+00  -6.5394873e+00  -6.6057263e+00  -6.6544754e+00  -6.7077838e+00  -6.7760468e+00  -6.8587555e+00  -6.9377446e+00  -7.0192827e+00  -7.1257053e+00  -7.2535989e+00  -7.3874104e+00  -7.4945329e+00  -7.5701766e+00  -7.6459214e+00  -7.7506657e+00  -7.8820638e+00  -8.0127668e+00  -8.1256766e+00  -8.2335156e+00  -8.3405923e+00  -8.4499404e+00  -8.5643163e+00  -8.6694494e+00  -8.7719277e+00  -8.8821776e+00  -8.9807451e+00  -9.0593181e+00  -9.1275320e+00  -9.2092920e+00  -9.3226324e+00  -9.4482075e+00  -9.5716176e+00  -9.6925273e+00
3.4985489e-01   2.2597449e-01   7.4310830e-02  -8.6758051e-02  -2.2050173e-01  -3.2051882e-01  -4.0895321e-01  -4.9907059e-01  -5.8395270e-01  -6.3768525e-01  -6.8184429e-01  -7.5677740e-01  -8.5035427e-01  -9.4063959e-01  -1.0460219e+00  -1.1534957e+00  -1.2261452e+00  -1.2725810e+00  -1.3372033e+00  -1.4481478e+00  -1.6080824e+00  -1.7697225e+00  -1.8911732e+00  -1.9977056e+00  -2.0990173e+00  -2.1866265e+00  -2.2789092e+00  -2.3838385e+00  -2.4744801e+00  -2.5433731e+00  -2.6425932e+00  -2.7916069e+00  -2.9553395e+00  -3.0902882e+00  -3.2068241e+00  -3.3366513e+00  -3.4628553e+00  -3.5470713e+00  -3.5931002e+00  -3.6468057e+00  -3.7356442e+00  -3.8324099e+00  -3.9111628e+00  -3.9872137e+00  -4.0715452e+00  -4.1637916e+00  -4.2674665e+00  -4.3809450e+00  -4.5017154e+00  -4.6188154e+00  -4.7332730e+00  -4.8435006e+00  -4.9480413e+00  -5.0454219e+00  -5.1353443e+00  -5.2237867e+00  -5.3194365e+00  -5.4188164e+00  -5.5287535e+00  -5.6413850e+00  -5.7477390e+00  -5.8396963e+00  -5.9019730e+00  -5.9710045e+00  -6.0919805e+00  -6.2464817e+00  -6.3919484e+00  -6.4988321e+00  -6.5757432e+00  -6.6438649e+00  -6.7182156e+00  -6.7978170e+00  -6.8706501e+00  -6.9284746e+00  -7.0037478e+00  -7.1115475e+00  -7.2342921e+00  -7.3678314e+00  -7.4884987e+00  -7.5842524e+00  -7.6778787e+00  -7.7838816e+00  -7.9071432e+00  -8.0357865e+00  -8.1476990e+00  -8.2505640e+00  -8.3529212e+00  -8.4581037e+00  -8.5589165e+00  -8.6368939e+00  -8.7188794e+00  -8.8294861e+00  -8.9389495e+00  -9.0255049e+00  -9.1038020e+00  -9.1940141e+00  -9.3095855e+00  -9.4387066e+00  -9.5571862e+00  -9.6638641e+00
2.6698296e-01   1.8894053e-01   7.9445967e-02  -7.9363721e-02  -2.3765929e-01  -3.4967285e-01  -4.2510033e-01  -5.0361798e-01  -5.9982019e-01  -6.7432778e-01  -7.2659872e-01  -7.9502439e-01  -8.7672123e-01  -9.5157679e-01  -1.0407147e+00  -1.1427276e+00  -1.2269199e+00  -1.2946622e+00  -1.3803730e+00  -1.5060581e+00  -1.6693749e+00  -1.8284188e+00  -1.9467318e+00  -2.0417912e+00  -2.1252461e+00  -2.1979213e+00  -2.2819042e+00  -2.3951398e+00  -2.5048270e+00  -2.5839958e+00  -2.6754545e+00  -2.7978691e+00  -2.9318123e+00  -3.0527771e+00  -3.1720259e+00  -3.3059532e+00  -3.4350334e+00  -3.5303498e+00  -3.5862699e+00  -3.6343764e+00  -3.7034548e+00  -3.7874143e+00  -3.8821565e+00  -3.9869490e+00  -4.0817119e+00  -4.1651538e+00  -4.2629383e+00  -4.3759168e+00  -4.4957422e+00  -4.6183271e+00  -4.7413694e+00  -4.8551055e+00  -4.9515264e+00  -5.0352412e+00  -5.1190876e+00  -5.2071337e+00  -5.3101072e+00  -5.4361044e+00  -5.5618813e+00  -5.6536970e+00  -5.7220305e+00  -5.7891213e+00  -5.8616395e+00  -5.9646101e+00  -6.1086431e+00  -6.2552115e+00  -6.3673700e+00  -6.4415565e+00  -6.5110799e+00  -6.5940737e+00  -6.6957151e+00  -6.8027969e+00  -6.8882728e+00  -6.9487834e+00  -7.0298474e+00  -7.1347889e+00  -7.2455122e+00  -7.3738121e+00  -7.5053853e+00  -7.6155485e+00  -7.7142836e+00  -7.8093857e+00  -7.9167059e+00  -8.0382379e+00  -8.1522733e+00  -8.2657646e+00  -8.3836440e+00  -8.4927795e+00  -8.5737835e+00  -8.6241392e+00  -8.6901845e+00  -8.7953603e+00  -8.9085635e+00  -8.9998970e+00  -9.0863275e+00  -9.1843458e+00  -9.2978237e+00  -9.4203896e+00  -9.5275048e+00  -9.6173783e+00
1.9554423e-01   1.4872258e-01   7.7186249e-02  -5.8698036e-02  -2.1245093e-01  -3.1938592e-01  -3.8628869e-01  -4.6606897e-01  -5.7893346e-01  -6.7629590e-01  -7.4172147e-01  -8.1618469e-01  -9.0701858e-01  -9.8636796e-01  -1.0659911e+00  -1.1612136e+00  -1.2584025e+00  -1.3405383e+00  -1.4259151e+00  -1.5444948e+00  -1.6958184e+00  -1.8473922e+00  -1.9716769e+00  -2.0712364e+00  -2.1532459e+00  -2.2274477e+00  -2.3120247e+00  -2.4298759e+00  -2.5538729e+00  -2.6470069e+00  -2.7356572e+00  -2.8284674e+00  -2.9195672e+00  -3.0109697e+00  -3.1226716e+00  -3.2535518e+00  -3.3760331e+00  -3.4794285e+00  -3.5597580e+00  -3.6231767e+00  -3.6814025e+00  -3.7585208e+00  -3.8699994e+00  -3.9888803e+00  -4.0779005e+00  -4.1448810e+00  -4.2286352e+00  -4.3289665e+00  -4.4458527e+00  -4.5833264e+00  -4.7178889e+00  -4.8248592e+00  -4.9009582e+00  -4.9661056e+00  -5.0486929e+00  -5.1512610e+00  -5.2756356e+00  -5.4280081e+00  -5.5625969e+00  -5.6377729e+00  -5.6892206e+00  -5.7571695e+00  -5.8491714e+00  -5.9768146e+00  -6.1311896e+00  -6.2661144e+00  -6.3529980e+00  -6.3993205e+00  -6.4508433e+00  -6.5329332e+00  -6.6525332e+00  -6.7888710e+00  -6.9008179e+00  -6.9821997e+00  -7.0711019e+00  -7.1657125e+00  -7.2662018e+00  -7.3960132e+00  -7.5400943e+00  -7.6545275e+00  -7.7401320e+00  -7.8150944e+00  -7.9065721e+00  -8.0179593e+00  -8.1263031e+00  -8.2474463e+00  -8.3848092e+00  -8.5027070e+00  -8.5750773e+00  -8.6221801e+00  -8.6921910e+00  -8.7900913e+00  -8.8924581e+00  -8.9766463e+00  -9.0610013e+00  -9.1619574e+00  -9.2766460e+00  -9.3967275e+00  -9.5015605e+00  -9.5878959e+00
1.6108656e-01   1.1870784e-01   6.2364822e-02  -4.7911670e-02  -1.7743758e-01  -2.6622422e-01  -3.3040644e-01  -4.2009513e-01  -5.4393443e-01  -6.5262539e-01  -7.3117152e-01  -8.1982745e-01  -9.2287133e-01  -1.0089017e+00  -1.0841152e+00  -1.1723332e+00  -1.2745571e+00  -1.3629098e+00  -1.4431457e+00  -1.5514949e+00  -1.6882771e+00  -1.8307686e+00  -1.9641421e+00  -2.0762022e+00  -2.1642436e+00  -2.2503483e+00  -2.3506785e+00  -2.4751127e+00  -2.5962877e+00  -2.6861845e+00  -2.7652532e+00  -2.8373166e+00  -2.9023280e+00  -2.9783613e+00  -3.0870691e+00  -3.2100561e+00  -3.3176516e+00  -3.4208860e+00  -3.5239555e+00  -3.6121505e+00  -3.6777011e+00  -3.7644157e+00  -3.8907026e+00  -4.0070140e+00  -4.0750307e+00  -4.1204007e+00  -4.1885731e+00  -4.2756003e+00  -4.3900982e+00  -4.5392274e+00  -4.6841092e+00  -4.7903875e+00  -4.8546175e+00  -4.9075375e+00  -4.9901630e+00  -5.1095499e+00  -5.2505332e+00  -5.4049000e+00  -5.5286715e+00  -5.5973005e+00  -5.6620365e+00  -5.7569306e+00  -5.8702952e+00  -6.0014900e+00  -6.1432215e+00  -6.2617301e+00  -6.3418674e+00  -6.3818965e+00  -6.4159279e+00  -6.4798177e+00  -6.5968146e+00  -6.7506396e+00  -6.8898722e+00  -6.9975831e+00  -7.0961134e+00  -7.1884664e+00  -7.2963407e+00  -7.4392927e+00  -7.5900541e+00  -7.6929208e+00  -7.7525209e+00  -7.8100696e+00  -7.8966032e+00  -7.9988555e+00  -8.0912509e+00  -8.2048375e+00  -8.3475647e+00  -8.4710441e+00  -8.5468362e+00  -8.6079267e+00  -8.6910571e+00  -8.7856123e+00  -8.8770683e+00  -8.9550783e+00  -9.0373778e+00  -9.1367673e+00  -9.2536210e+00  -9.3810629e+00  -9.4986412e+00  -9.5966461e+00
1.7849359e-01   1.2293309e-01   5.7512321e-02  -4.5901407e-02  -1.5969902e-01  -2.3983594e-01  -3.1060466e-01  -4.0850615e-01  -5.2499804e-01  -6.2304569e-01  -7.0428634e-01  -8.0440014e-01  -9.1211388e-01  -1.0013989e+00  -1.0815151e+00  -1.1696605e+00  -1.2687528e+00  -1.3595411e+00  -1.4473692e+00  -1.5588985e+00  -1.6830897e+00  -1.8062316e+00  -1.9338868e+00  -2.0479775e+00  -2.1341847e+00  -2.2302820e+00  -2.3556291e+00  -2.4942848e+00  -2.6091663e+00  -2.6954463e+00  -2.7754294e+00  -2.8474109e+00  -2.9080156e+00  -2.9820582e+00  -3.0882223e+00  -3.1982563e+00  -3.2890747e+00  -3.3837611e+00  -3.4955751e+00  -3.6080991e+00  -3.6997775e+00  -3.8051197e+00  -3.9334859e+00  -4.0349431e+00  -4.0809612e+00  -4.1090143e+00  -4.1646148e+00  -4.2453668e+00  -4.3604511e+00  -4.5105520e+00  -4.6589663e+00  -4.7763497e+00  -4.8511832e+00  -4.9102838e+00  -4.9943918e+00  -5.1164831e+00  -5.2523655e+00  -5.3834563e+00  -5.4901913e+00  -5.5705218e+00  -5.6683403e+00  -5.7964054e+00  -5.9258662e+00  -6.0470481e+00  -6.1631350e+00  -6.2664299e+00  -6.3532969e+00  -6.4057686e+00  -6.4309755e+00  -6.4699642e+00  -6.5672929e+00  -6.7202401e+00  -6.8718042e+00  -6.9913395e+00  -7.0958741e+00  -7.1995759e+00  -7.3307927e+00  -7.4892409e+00  -7.6323752e+00  -7.7118164e+00  -7.7507252e+00  -7.8059102e+00  -7.8975908e+00  -7.9912823e+00  -8.0682876e+00  -8.1712863e+00  -8.3079987e+00  -8.4289582e+00  -8.5074232e+00  -8.5764855e+00  -8.6632865e+00  -8.7621537e+00  -8.8624580e+00  -8.9518800e+00  -9.0411146e+00  -9.1360800e+00  -9.2429545e+00  -9.3639710e+00  -9.4877170e+00  -9.5991201e+00
2.2734649e-01   1.5964257e-01   8.2255797e-02  -2.6428961e-02  -1.4386783e-01  -2.3747860e-01  -3.2360647e-01  -4.2498933e-01  -5.2432919e-01  -6.0293743e-01  -6.7850666e-01  -7.8452261e-01  -8.9720519e-01  -9.9483082e-01  -1.0863462e+00  -1.1761750e+00  -1.2664435e+00  -1.3586022e+00  -1.4598715e+00  -1.5769765e+00  -1.6873405e+00  -1.7860286e+00  -1.8954355e+00  -2.0019402e+00  -2.0859538e+00  -2.1914368e+00  -2.3344897e+00  -2.4827512e+00  -2.5997121e+00  -2.7014275e+00  -2.8030061e+00  -2.8903380e+00  -2.9558189e+00  -3.0284810e+00  -3.1279874e+00  -3.2278606e+00  -3.3112989e+00  -3.3973440e+00  -3.5058079e+00  -3.6306215e+00  -3.7429583e+00  -3.8511724e+00  -3.9586303e+00  -4.0403966e+00  -4.0837472e+00  -4.1179980e+00  -4.1745487e+00  -4.2584070e+00  -4.3774257e+00  -4.5194646e+00  -4.6593999e+00  -4.7867478e+00  -4.8837137e+00  -4.9637104e+00  -5.0520648e+00  -5.1586151e+00  -5.2679378e+00  -5.3698786e+00  -5.4717449e+00  -5.5769537e+00  -5.7067271e+00  -5.8511184e+00  -5.9785628e+00  -6.0849956e+00  -6.1832125e+00  -6.2830206e+00  -6.3784620e+00  -6.4431025e+00  -6.4679168e+00  -6.4961330e+00  -6.5798673e+00  -6.7238932e+00  -6.8727501e+00  -6.9883162e+00  -7.0910627e+00  -7.2057276e+00  -7.3545268e+00  -7.5202768e+00  -7.6529234e+00  -7.7189173e+00  -7.7587902e+00  -7.8271753e+00  -7.9226090e+00  -8.0005977e+00  -8.0622028e+00  -8.1595235e+00  -8.2900105e+00  -8.4012446e+00  -8.4751929e+00  -8.5409100e+00  -8.6178380e+00  -8.7190842e+00  -8.8395706e+00  -8.9572701e+00  -9.0688497e+00  -9.1693777e+00  -9.2603895e+00  -9.3507862e+00  -9.4536858e+00  -9.5633431e+00
2.7772055e-01   2.0060981e-01   1.1600926e-01   4.2312581e-03  -1.2500857e-01  -2.4509927e-01  -3.4797748e-01  -4.4852748e-01  -5.3591111e-01  -6.0522852e-01  -6.7961585e-01  -7.8865392e-01  -9.0346040e-01  -1.0039717e+00  -1.0966957e+00  -1.1820777e+00  -1.2678900e+00  -1.3664131e+00  -1.4729033e+00  -1.5806423e+00  -1.6760255e+00  -1.7630818e+00  -1.8649557e+00  -1.9746785e+00  -2.0733266e+00  -2.1902729e+00  -2.3268892e+00  -2.4579302e+00  -2.5671972e+00  -2.6830978e+00  -2.8108091e+00  -2.9217786e+00  -2.9995517e+00  -3.0731606e+00  -3.1698372e+00  -3.2735065e+00  -3.3650174e+00  -3.4505562e+00  -3.5534013e+00  -3.6719824e+00  -3.7777112e+00  -3.8666390e+00  -3.9433285e+00  -4.0102198e+00  -4.0689489e+00  -4.1293234e+00  -4.2019787e+00  -4.3006211e+00  -4.4309194e+00  -4.5668888e+00  -4.6937497e+00  -4.8182019e+00  -4.9259920e+00  -5.0245993e+00  -5.1182646e+00  -5.2011835e+00  -5.2780897e+00  -5.3625428e+00  -5.4704323e+00  -5.5928601e+00  -5.7340933e+00  -5.8728439e+00  -5.9840465e+00  -6.0780592e+00  -6.1728776e+00  -6.2805845e+00  -6.3829032e+00  -6.4521664e+00  -6.4804814e+00  -6.5154781e+00  -6.6023769e+00  -6.7401807e+00  -6.8801805e+00  -6.9876857e+00  -7.0863046e+00  -7.2033062e+00  -7.3529674e+00  -7.5190385e+00  -7.6536106e+00  -7.7279624e+00  -7.7829692e+00  -7.8649929e+00  -7.9587291e+00  -8.0223463e+00  -8.0689919e+00  -8.1557377e+00  -8.2761588e+00  -8.3764517e+00  -8.4511699e+00  -8.5222605e+00  -8.5948949e+00  -8.6937266e+00  -8.8251126e+00  -8.9659892e+00  -9.0998316e+00  -9.2120669e+00  -9.2914295e+00  -9.3468609e+00  -9.4202365e+00  -9.5211206e+00
2.9738756e-01   2.1495281e-01   1.3109101e-01   2.3837315e-02  -1.1638877e-01  -2.6583964e-01  -3.8561458e-01  -4.8159821e-01  -5.6248722e-01  -6.3336963e-01  -7.1047659e-01  -8.1567288e-01  -9.2221468e-01  -1.0098701e+00  -1.0897407e+00  -1.1695991e+00  -1.2623172e+00  -1.3739548e+00  -1.4803507e+00  -1.5749760e+00  -1.6612877e+00  -1.7483645e+00  -1.8558336e+00  -1.9815287e+00  -2.1055256e+00  -2.2304774e+00  -2.3401440e+00  -2.4293500e+00  -2.5104152e+00  -2.6210899e+00  -2.7659041e+00  -2.9044601e+00  -3.0028462e+00  -3.0835629e+00  -3.1866619e+00  -3.3087422e+00  -3.4215273e+00  -3.5164012e+00  -3.6132933e+00  -3.7098810e+00  -3.7903445e+00  -3.8599367e+00  -3.9247112e+00  -3.9928045e+00  -4.0687102e+00  -4.1490600e+00  -4.2361246e+00  -4.3511776e+00  -4.4904680e+00  -4.6195000e+00  -4.7340352e+00  -4.8463268e+00  -4.9493606e+00  -5.0536695e+00  -5.1529066e+00  -5.2230626e+00  -5.2811604e+00  -5.3622904e+00  -5.4758688e+00  -5.6003608e+00  -5.7350279e+00  -5.8589240e+00  -5.9558238e+00  -6.0468628e+00  -6.1453384e+00  -6.2551166e+00  -6.3565197e+00  -6.4339208e+00  -6.4804090e+00  -6.5315337e+00  -6.6221863e+00  -6.7501427e+00  -6.8789695e+00  -6.9812150e+00  -7.0784927e+00  -7.1914663e+00  -7.3275881e+00  -7.4815231e+00  -7.6200458e+00  -7.7137263e+00  -7.7877004e+00  -7.8781939e+00  -7.9684106e+00  -8.0263391e+00  -8.0684767e+00  -8.1488214e+00  -8.2639517e+00  -8.3664480e+00  -8.4570129e+00  -8.5436705e+00  -8.6168890e+00  -8.7056781e+00  -8.8310724e+00  -8.9731503e+00  -9.1068905e+00  -9.2211166e+00  -9.2947000e+00  -9.3313397e+00  -9.3925348e+00  -9.4931768e+00
2.7861043e-01   2.0836298e-01   1.4430668e-01   4.7678704e-02  -1.0445808e-01  -2.8274973e-01  -4.2294149e-01  -5.1689042e-01  -5.9297821e-01  -6.6699561e-01  -7.4714007e-01  -8.4687699e-01  -9.4217260e-01  -1.0088023e+00  -1.0686364e+00  -1.1435167e+00  -1.2441471e+00  -1.3647193e+00  -1.4737151e+00  -1.5719465e+00  -1.6627073e+00  -1.7524840e+00  -1.8670427e+00  -2.0069299e+00  -2.1464192e+00  -2.2692250e+00  -2.3542261e+00  -2.4112370e+00  -2.4663703e+00  -2.5622553e+00  -2.7121564e+00  -2.8679158e+00  -2.9803710e+00  -3.0655879e+00  -3.1713365e+00  -3.3034664e+00  -3.4351605e+00  -3.5488839e+00  -3.6494793e+00  -3.7305356e+00  -3.7937305e+00  -3.8579764e+00  -3.9313120e+00  -4.0150112e+00  -4.1022523e+00  -4.1815878e+00  -4.2619864e+00  -4.3767976e+00  -4.5154171e+00  -4.6396200e+00  -4.7476585e+00  -4.8463625e+00  -4.9357424e+00  -5.0340902e+00  -5.1365793e+00  -5.2094053e+00  -5.2674105e+00  -5.3500210e+00  -5.4610190e+00  -5.5814912e+00  -5.7094393e+00  -5.8226653e+00  -5.9144058e+00  -6.0142290e+00  -6.1206425e+00  -6.2204712e+00  -6.3091542e+00  -6.4023815e+00  -6.4921885e+00  -6.5760716e+00  -6.6698803e+00  -6.7812506e+00  -6.8943396e+00  -6.9889272e+00  -7.0798414e+00  -7.1809775e+00  -7.2984576e+00  -7.4318139e+00  -7.5678722e+00  -7.6828238e+00  -7.7794411e+00  -7.8755533e+00  -7.9564033e+00  -8.0056202e+00  -8.0480805e+00  -8.1307963e+00  -8.2513473e+00  -8.3717259e+00  -8.4856438e+00  -8.5841405e+00  -8.6555242e+00  -8.7326942e+00  -8.8463371e+00  -8.9756311e+00  -9.0956957e+00  -9.2088921e+00  -9.2889931e+00  -9.3317936e+00  -9.3987428e+00  -9.5016247e+00
2.5890278e-01   2.0647122e-01   1.6450112e-01   7.5156392e-02  -8.5706176e-02  -2.7999953e-01  -4.3568262e-01  -5.3251779e-01  -6.0725376e-01  -6.8266839e-01  -7.6543174e-01  -8.6543662e-01  -9.5998896e-01  -1.0165023e+00  -1.0614239e+00  -1.1288819e+00  -1.2296737e+00  -1.3527886e+00  -1.4678877e+00  -1.5774936e+00  -1.6754085e+00  -1.7673817e+00  -1.8905086e+00  -2.0436507e+00  -2.1879995e+00  -2.2997605e+00  -2.3669437e+00  -2.4080739e+00  -2.4540780e+00  -2.5443256e+00  -2.6916958e+00  -2.8439529e+00  -2.9533502e+00  -3.0344058e+00  -3.1318657e+00  -3.2566961e+00  -3.3954945e+00  -3.5298229e+00  -3.6463770e+00  -3.7331190e+00  -3.8002966e+00  -3.8702784e+00  -3.9534173e+00  -4.0479201e+00  -4.1351347e+00  -4.2006650e+00  -4.2635595e+00  -4.3664477e+00  -4.5027621e+00  -4.6315665e+00  -4.7402911e+00  -4.8259991e+00  -4.8976147e+00  -4.9833583e+00  -5.0850846e+00  -5.1680162e+00  -5.2366841e+00  -5.3228895e+00  -5.4290679e+00  -5.5468544e+00  -5.6752071e+00  -5.7897271e+00  -5.8885440e+00  -6.0017456e+00  -6.1137543e+00  -6.1976138e+00  -6.2661064e+00  -6.3680991e+00  -6.5032012e+00  -6.6305780e+00  -6.7380829e+00  -6.8380120e+00  -6.9336694e+00  -7.0128420e+00  -7.0868073e+00  -7.1735152e+00  -7.2829398e+00  -7.4082334e+00  -7.5454733e+00  -7.6780010e+00  -7.7900062e+00  -7.8831471e+00  -7.9487156e+00  -7.9891971e+00  -8.0359470e+00  -8.1216106e+00  -8.2435351e+00  -8.3738219e+00  -8.4969563e+00  -8.5968985e+00  -8.6709095e+00  -8.7485935e+00  -8.8551362e+00  -8.9641697e+00  -9.0672364e+00  -9.1865791e+00  -9.2920029e+00  -9.3662855e+00  -9.4498826e+00  -9.5505719e+00
2.5234481e-01   2.0564665e-01   1.7019755e-01   8.1869694e-02  -7.8012762e-02  -2.6552477e-01  -4.1696073e-01  -5.1329802e-01  -5.9399881e-01  -6.7614137e-01  -7.6150237e-01  -8.5848958e-01  -9.5483944e-01  -1.0188182e+00  -1.0715312e+00  -1.1448985e+00  -1.2482573e+00  -1.3755026e+00  -1.5016489e+00  -1.6165992e+00  -1.7090045e+00  -1.7955195e+00  -1.9233330e+00  -2.0866948e+00  -2.2312035e+00  -2.3288966e+00  -2.3803092e+00  -2.4110852e+00  -2.4572407e+00  -2.5503077e+00  -2.6920530e+00  -2.8327163e+00  -2.9386307e+00  -3.0165547e+00  -3.0984456e+00  -3.2065528e+00  -3.3431876e+00  -3.4878859e+00  -3.6184554e+00  -3.7250700e+00  -3.8156768e+00  -3.9019091e+00  -3.9917451e+00  -4.0885746e+00  -4.1713646e+00  -4.2250325e+00  -4.2725482e+00  -4.3574864e+00  -4.4833188e+00  -4.6150544e+00  -4.7329395e+00  -4.8189277e+00  -4.8781353e+00  -4.9433962e+00  -5.0333356e+00  -5.1280526e+00  -5.2199351e+00  -5.3198999e+00  -5.4213583e+00  -5.5295787e+00  -5.6544637e+00  -5.7754912e+00  -5.8898750e+00  -6.0151246e+00  -6.1262281e+00  -6.1969740e+00  -6.2533269e+00  -6.3548290e+00  -6.5089655e+00  -6.6616776e+00  -6.7857547e+00  -6.8872024e+00  -6.9720694e+00  -7.0310785e+00  -7.0825910e+00  -7.1601610e+00  -7.2782196e+00  -7.4190261e+00  -7.5702310e+00  -7.7152021e+00  -7.8290850e+00  -7.9092066e+00  -7.9585870e+00  -7.9943749e+00  -8.0447007e+00  -8.1250814e+00  -8.2371361e+00  -8.3613759e+00  -8.4817585e+00  -8.5881257e+00  -8.6819947e+00  -8.7742187e+00  -8.8715035e+00  -8.9489047e+00  -9.0301907e+00  -9.1574033e+00  -9.2948624e+00  -9.4069980e+00  -9.5092576e+00  -9.6075252e+00
2.3693999e-01   1.8288169e-01   1.4602173e-01   6.6218963e-02  -7.7921157e-02  -2.4665029e-01  -3.8550789e-01  -4.8008684e-01  -5.7312632e-01  -6.7335521e-01  -7.6864470e-01  -8.5470108e-01  -9.3394650e-01  -9.9795321e-01  -1.0690734e+00  -1.1665006e+00  -1.2871612e+00  -1.4297446e+00  -1.5753999e+00  -1.6962490e+00  -1.7790381e+00  -1.8498154e+00  -1.9602638e+00  -2.1096376e+00  -2.2428929e+00  -2.3297164e+00  -2.3785774e+00  -2.4136451e+00  -2.4631697e+00  -2.5529184e+00  -2.6834204e+00  -2.8159634e+00  -2.9279182e+00  -3.0138721e+00  -3.0889611e+00  -3.1882321e+00  -3.3232885e+00  -3.4653104e+00  -3.5935226e+00  -3.7090670e+00  -3.8182656e+00  -3.9251514e+00  -4.0266459e+00  -4.1271404e+00  -4.2099144e+00  -4.2633765e+00  -4.3068358e+00  -4.3769072e+00  -4.4795234e+00  -4.5979787e+00  -4.7263752e+00  -4.8299522e+00  -4.8884876e+00  -4.9302996e+00  -4.9953636e+00  -5.0960052e+00  -5.2216668e+00  -5.3498400e+00  -5.4553572e+00  -5.5571817e+00  -5.6767755e+00  -5.7981086e+00  -5.9178004e+00  -6.0396613e+00  -6.1405563e+00  -6.2090057e+00  -6.2719580e+00  -6.3717126e+00  -6.5172955e+00  -6.6680816e+00  -6.7988132e+00  -6.9027879e+00  -6.9816300e+00  -7.0298905e+00  -7.0738980e+00  -7.1548469e+00  -7.2867384e+00  -7.4491800e+00  -7.6117753e+00  -7.7505842e+00  -7.8484984e+00  -7.9125126e+00  -7.9562007e+00  -8.0004640e+00  -8.0619662e+00  -8.1446896e+00  -8.2553154e+00  -8.3737948e+00  -8.4870690e+00  -8.6015238e+00  -8.7191732e+00  -8.8235898e+00  -8.9007817e+00  -8.9410539e+00  -8.9995099e+00  -9.1249293e+00  -9.2774331e+00  -9.4108466e+00  -9.5308287e+00  -9.6378780e+00
2.2563769e-01   1.4905297e-01   9.4205217e-02   2.1449719e-02  -9.3671362e-02  -2.3427195e-01  -3.5872049e-01  -4.4849499e-01  -5.4816710e-01  -6.7119971e-01  -7.8980330e-01  -8.7541039e-01  -9.3491357e-01  -9.8883935e-01  -1.0670958e+00  -1.1815333e+00  -1.3176350e+00  -1.4730892e+00  -1.6322472e+00  -1.7600639e+00  -1.8409826e+00  -1.8995496e+00  -1.9820280e+00  -2.0959127e+00  -2.2031337e+00  -2.2804738e+00  -2.3429492e+00  -2.4027284e+00  -2.4643917e+00  -2.5477597e+00  -2.6653871e+00  -2.7945623e+00  -2.9150830e+00  -3.0138327e+00  -3.0956236e+00  -3.2029501e+00  -3.3467260e+00  -3.4803177e+00  -3.5851818e+00  -3.6816002e+00  -3.7876355e+00  -3.9067569e+00  -4.0170070e+00  -4.1164377e+00  -4.1966518e+00  -4.2596375e+00  -4.3176161e+00  -4.3917934e+00  -4.4789713e+00  -4.5813933e+00  -4.7127769e+00  -4.8320165e+00  -4.8984488e+00  -4.9309470e+00  -4.9768103e+00  -5.0757042e+00  -5.2239031e+00  -5.3733084e+00  -5.4886949e+00  -5.5990738e+00  -5.7274453e+00  -5.8497061e+00  -5.9565200e+00  -6.0531599e+00  -6.1403290e+00  -6.2226591e+00  -6.3064985e+00  -6.4041775e+00  -6.5298474e+00  -6.6704208e+00  -6.8040581e+00  -6.9078451e+00  -6.9802898e+00  -7.0287131e+00  -7.0822979e+00  -7.1714337e+00  -7.3039254e+00  -7.4678189e+00  -7.6230117e+00  -7.7416209e+00  -7.8233674e+00  -7.8853536e+00  -7.9446819e+00  -8.0168410e+00  -8.1026887e+00  -8.1970813e+00  -8.3101409e+00  -8.4233105e+00  -8.5281530e+00  -8.6475001e+00  -8.7805952e+00  -8.8880426e+00  -8.9421360e+00  -8.9536390e+00  -8.9935289e+00  -9.1013159e+00  -9.2429826e+00  -9.3817602e+00  -9.5209710e+00  -9.6470013e+00
2.4244633e-01   1.3505548e-01   4.1301839e-02  -4.4230482e-02  -1.3371291e-01  -2.4052627e-01  -3.4516207e-01  -4.2285845e-01  -5.1498026e-01  -6.4936800e-01  -7.9110827e-01  -8.8919661e-01  -9.4465965e-01  -9.9172234e-01  -1.0644654e+00  -1.1793063e+00  -1.3190988e+00  -1.4753753e+00  -1.6356706e+00  -1.7697862e+00  -1.8565493e+00  -1.9146418e+00  -1.9783010e+00  -2.0556803e+00  -2.1342023e+00  -2.2083413e+00  -2.2948077e+00  -2.3864865e+00  -2.4666105e+00  -2.5497074e+00  -2.6575940e+00  -2.7828236e+00  -2.9089548e+00  -3.0204586e+00  -3.1156613e+00  -3.2331123e+00  -3.3832399e+00  -3.5091741e+00  -3.5887456e+00  -3.6546955e+00  -3.7434194e+00  -3.8575935e+00  -3.9625062e+00  -4.0527298e+00  -4.1256942e+00  -4.2035736e+00  -4.2918877e+00  -4.3874816e+00  -4.4756717e+00  -4.5726292e+00  -4.7015440e+00  -4.8278115e+00  -4.9100044e+00  -4.9512872e+00  -4.9870643e+00  -5.0685603e+00  -5.2071478e+00  -5.3529184e+00  -5.4749801e+00  -5.6035912e+00  -5.7552855e+00  -5.8843676e+00  -5.9661444e+00  -6.0282386e+00  -6.1111297e+00  -6.2247807e+00  -6.3366678e+00  -6.4307241e+00  -6.5369235e+00  -6.6722279e+00  -6.8103825e+00  -6.9116838e+00  -6.9758033e+00  -7.0279201e+00  -7.0974710e+00  -7.1934788e+00  -7.3131959e+00  -7.4553530e+00  -7.5855033e+00  -7.6834651e+00  -7.7679232e+00  -7.8547906e+00  -7.9529397e+00  -8.0656933e+00  -8.1742780e+00  -8.2663604e+00  -8.3646024e+00  -8.4701672e+00  -8.5758035e+00  -8.7004214e+00  -8.8341967e+00  -8.9357355e+00  -8.9794436e+00  -8.9865817e+00  -9.0218288e+00  -9.1083353e+00  -9.2280846e+00  -9.3661344e+00  -9.5188117e+00  -9.6581006e+00
2.8775072e-01   1.5932829e-01   2.8309665e-02  -8.5110893e-02  -1.6897583e-01  -2.5372147e-01  -3.4322653e-01  -4.1402478e-01  -4.9588653e-01  -6.2150367e-01  -7.6083470e-01  -8.5834134e-01  -9.1686987e-01  -9.7082071e-01  -1.0459876e+00  -1.1558610e+00  -1.2857583e+00  -1.4314639e+00  -1.5880064e+00  -1.7303942e+00  -1.8303768e+00  -1.9000686e+00  -1.9576337e+00  -2.0109268e+00  -2.0752230e+00  -2.1592030e+00  -2.2685543e+00  -2.3784577e+00  -2.4693153e+00  -2.5600176e+00  -2.6695074e+00  -2.7975576e+00  -2.9290614e+00  -3.0474174e+00  -3.1498232e+00  -3.2639608e+00  -3.4024296e+00  -3.5177182e+00  -3.5864169e+00  -3.6355889e+00  -3.7103395e+00  -3.8126822e+00  -3.9081185e+00  -3.9901891e+00  -4.0574654e+00  -4.1506452e+00  -4.2749434e+00  -4.4015452e+00  -4.5001613e+00  -4.5942014e+00  -4.7159631e+00  -4.8464577e+00  -4.9495172e+00  -5.0054048e+00  -5.0312760e+00  -5.0814085e+00  -5.1881995e+00  -5.3208238e+00  -5.4506065e+00  -5.5896077e+00  -5.7491211e+00  -5.8781036e+00  -5.9418562e+00  -5.9867465e+00  -6.0782238e+00  -6.2216537e+00  -6.3568357e+00  -6.4545245e+00  -6.5519475e+00  -6.6783606e+00  -6.8048752e+00  -6.8928217e+00  -6.9506317e+00  -7.0131480e+00  -7.1036837e+00  -7.2071768e+00  -7.3085015e+00  -7.4180940e+00  -7.5198510e+00  -7.6066861e+00  -7.7085771e+00  -7.8340251e+00  -7.9785192e+00  -8.1259030e+00  -8.2420430e+00  -8.3172047e+00  -8.3921757e+00  -8.4910549e+00  -8.6000739e+00  -8.7201316e+00  -8.8377896e+00  -8.9326690e+00  -8.9876975e+00  -9.0177941e+00  -9.0681144e+00  -9.1503049e+00  -9.2592802e+00  -9.3968927e+00  -9.5510713e+00  -9.6890393e+00
2.8616685e-01   1.6822954e-01   3.7706652e-02  -8.8957812e-02  -1.7661673e-01  -2.5322560e-01  -3.4086314e-01  -4.2092474e-01  -5.0175461e-01  -6.0743721e-01  -7.2112084e-01  -7.9852045e-01  -8.5649825e-01  -9.2606801e-01  -1.0142570e+00  -1.1197849e+00  -1.2325036e+00  -1.3647275e+00  -1.5199637e+00  -1.6713846e+00  -1.7891485e+00  -1.8765556e+00  -1.9332332e+00  -1.9715946e+00  -2.0329548e+00  -2.1329329e+00  -2.2565548e+00  -2.3683671e+00  -2.4617335e+00  -2.5692959e+00  -2.6974853e+00  -2.8370720e+00  -2.9666852e+00  -3.0727099e+00  -3.1642714e+00  -3.2667291e+00  -3.3883570e+00  -3.4937301e+00  -3.5659535e+00  -3.6166030e+00  -3.6855521e+00  -3.7805563e+00  -3.8790555e+00  -3.9675195e+00  -4.0384597e+00  -4.1405139e+00  -4.2857254e+00  -4.4347677e+00  -4.5407469e+00  -4.6248524e+00  -4.7373491e+00  -4.8750911e+00  -4.9963371e+00  -5.0661541e+00  -5.0945731e+00  -5.1296462e+00  -5.2120028e+00  -5.3316938e+00  -5.4621350e+00  -5.5955900e+00  -5.7398195e+00  -5.8562390e+00  -5.9140908e+00  -5.9617473e+00  -6.0647801e+00  -6.2207884e+00  -6.3632172e+00  -6.4697187e+00  -6.5718090e+00  -6.6842290e+00  -6.7815530e+00  -6.8490289e+00  -6.9103629e+00  -6.9930536e+00  -7.1003683e+00  -7.2042966e+00  -7.2906733e+00  -7.3795973e+00  -7.4675358e+00  -7.5550533e+00  -7.6715023e+00  -7.8230349e+00  -7.9965293e+00  -8.1569061e+00  -8.2714520e+00  -8.3405118e+00  -8.4067648e+00  -8.4983429e+00  -8.5990231e+00  -8.7002764e+00  -8.7964107e+00  -8.8914313e+00  -8.9720092e+00  -9.0390217e+00  -9.1177367e+00  -9.2138074e+00  -9.3185111e+00  -9.4394157e+00  -9.5666603e+00  -9.6803686e+00
2.3866879e-01   1.4964533e-01   4.9525517e-02  -6.7023490e-02  -1.5601915e-01  -2.3535415e-01  -3.3264270e-01  -4.3130305e-01  -5.2277174e-01  -6.1995572e-01  -7.1418282e-01  -7.7372426e-01  -8.2756209e-01  -9.0173756e-01  -9.8861159e-01  -1.0779048e+00  -1.1688256e+00  -1.2917600e+00  -1.4533265e+00  -1.6166919e+00  -1.7508968e+00  -1.8496327e+00  -1.9025536e+00  -1.9329224e+00  -1.9973564e+00  -2.1119495e+00  -2.2406635e+00  -2.3468047e+00  -2.4434218e+00  -2.5736547e+00  -2.7281139e+00  -2.8733995e+00  -2.9799164e+00  -3.0512856e+00  -3.1183433e+00  -3.2139320e+00  -3.3378387e+00  -3.4529615e+00  -3.5432269e+00  -3.6048827e+00  -3.6705044e+00  -3.7650653e+00  -3.8811396e+00  -3.9894179e+00  -4.0694191e+00  -4.1661609e+00  -4.3046466e+00  -4.4560908e+00  -4.5674834e+00  -4.6483718e+00  -4.7582103e+00  -4.8988434e+00  -5.0223888e+00  -5.1012457e+00  -5.1476048e+00  -5.1908754e+00  -5.2638593e+00  -5.3680121e+00  -5.4867661e+00  -5.6116900e+00  -5.7420292e+00  -5.8431859e+00  -5.8966286e+00  -5.9492163e+00  -6.0608177e+00  -6.2224412e+00  -6.3646999e+00  -6.4748317e+00  -6.5822685e+00  -6.6853344e+00  -6.7619663e+00  -6.8202940e+00  -6.8945678e+00  -6.9965437e+00  -7.1079653e+00  -7.2041084e+00  -7.2823282e+00  -7.3652171e+00  -7.4504683e+00  -7.5421935e+00  -7.6630960e+00  -7.8206061e+00  -7.9957711e+00  -8.1485146e+00  -8.2638016e+00  -8.3478784e+00  -8.4244276e+00  -8.5113594e+00  -8.6026122e+00  -8.6906190e+00  -8.7758337e+00  -8.8718363e+00  -8.9674937e+00  -9.0602117e+00  -9.1636467e+00  -9.2794425e+00  -9.3832851e+00  -9.4781202e+00  -9.5622609e+00  -9.6398048e+00
2.3868474e-01   1.6109126e-01   7.7533148e-02  -2.9616108e-02  -1.2303041e-01  -2.1606028e-01  -3.3312137e-01  -4.5553850e-01  -5.6653196e-01  -6.6923898e-01  -7.5692280e-01  -8.1206978e-01  -8.6270885e-01  -9.2555614e-01  -9.9281983e-01  -1.0560563e+00  -1.1233877e+00  -1.2338005e+00  -1.3948232e+00  -1.5615056e+00  -1.6982783e+00  -1.7995932e+00  -1.8607383e+00  -1.9088525e+00  -1.9910705e+00  -2.1159759e+00  -2.2395698e+00  -2.3365357e+00  -2.4351785e+00  -2.5775997e+00  -2.7438688e+00  -2.8782697e+00  -2.9488175e+00  -2.9858180e+00  -3.0360079e+00  -3.1346566e+00  -3.2743455e+00  -3.4094607e+00  -3.5199150e+00  -3.5955832e+00  -3.6651670e+00  -3.7673566e+00  -3.9027329e+00  -4.0292512e+00  -4.1179786e+00  -4.2052194e+00  -4.3249861e+00  -4.4640723e+00  -4.5797894e+00  -4.6695506e+00  -4.7802537e+00  -4.9083772e+00  -5.0124257e+00  -5.0889732e+00  -5.1536042e+00  -5.2140631e+00  -5.2912082e+00  -5.3854992e+00  -5.4885072e+00  -5.6073204e+00  -5.7359955e+00  -5.8323540e+00  -5.8846891e+00  -5.9372381e+00  -6.0509219e+00  -6.2214204e+00  -6.3747108e+00  -6.4874343e+00  -6.5910668e+00  -6.6920487e+00  -6.7724880e+00  -6.8422335e+00  -6.9297682e+00  -7.0333181e+00  -7.1318946e+00  -7.2172831e+00  -7.2921457e+00  -7.3695559e+00  -7.4454864e+00  -7.5354761e+00  -7.6566706e+00  -7.8100063e+00  -7.9693711e+00  -8.1068486e+00  -8.2276183e+00  -8.3351895e+00  -8.4289343e+00  -8.5173508e+00  -8.6124451e+00  -8.7091215e+00  -8.8016326e+00  -8.8966111e+00  -8.9848640e+00  -9.0775655e+00  -9.1912937e+00  -9.3225841e+00  -9.4311874e+00  -9.5148265e+00  -9.5826108e+00  -9.6491353e+00
3.0083545e-01   2.0685578e-01   1.1358760e-01   1.2746829e-02  -7.5274295e-02  -1.7610657e-01  -3.1562835e-01  -4.7104529e-01  -6.1188565e-01  -7.2244339e-01  -8.0235943e-01  -8.6355865e-01  -9.2600019e-01  -9.8796119e-01  -1.0461720e+00  -1.0955130e+00  -1.1428098e+00  -1.2267610e+00  -1.3608161e+00  -1.5058970e+00  -1.6283495e+00  -1.7311343e+00  -1.8166037e+00  -1.9029617e+00  -2.0114959e+00  -2.1430821e+00  -2.2630494e+00  -2.3586355e+00  -2.4576423e+00  -2.5919132e+00  -2.7413124e+00  -2.8493328e+00  -2.8877164e+00  -2.9074771e+00  -2.9626069e+00  -3.0775659e+00  -3.2308780e+00  -3.3741789e+00  -3.4927771e+00  -3.5754766e+00  -3.6463254e+00  -3.7490232e+00  -3.8907189e+00  -4.0269052e+00  -4.1267073e+00  -4.2166546e+00  -4.3285585e+00  -4.4564519e+00  -4.5740627e+00  -4.6714076e+00  -4.7749799e+00  -4.8838579e+00  -4.9730637e+00  -5.0532061e+00  -5.1376262e+00  -5.2183951e+00  -5.3071953e+00  -5.4014792e+00  -5.4950563e+00  -5.6057975e+00  -5.7274714e+00  -5.8188144e+00  -5.8765896e+00  -5.9343620e+00  -6.0426826e+00  -6.2115668e+00  -6.3752863e+00  -6.4923592e+00  -6.5888918e+00  -6.6909417e+00  -6.7890518e+00  -6.8805285e+00  -6.9803871e+00  -7.0815392e+00  -7.1696119e+00  -7.2492698e+00  -7.3228529e+00  -7.3930170e+00  -7.4545543e+00  -7.5347468e+00  -7.6494951e+00  -7.7896670e+00  -7.9261663e+00  -8.0496200e+00  -8.1764118e+00  -8.3056542e+00  -8.4177025e+00  -8.5108118e+00  -8.6113981e+00  -8.7188601e+00  -8.8223506e+00  -8.9190840e+00  -8.9964217e+00  -9.0755369e+00  -9.1819355e+00  -9.3141272e+00  -9.4280649e+00  -9.5219647e+00  -9.6127900e+00  -9.7025966e+00
3.5477720e-01   2.4017723e-01   1.3014023e-01   3.2815304e-02  -4.4216345e-02  -1.4183055e-01  -2.9268879e-01  -4.7117388e-01  -6.3023919e-01  -7.3766022e-01  -8.0440059e-01  -8.7181504e-01  -9.5296004e-01  -1.0307277e+00  -1.1086588e+00  -1.1798651e+00  -1.2299077e+00  -1.2871990e+00  -1.3784335e+00  -1.4867128e+00  -1.5898489e+00  -1.6933685e+00  -1.7988324e+00  -1.9129478e+00  -2.0356132e+00  -2.1684311e+00  -2.2943414e+00  -2.4004332e+00  -2.4981372e+00  -2.6076751e+00  -2.7183793e+00  -2.7963637e+00  -2.8220567e+00  -2.8502783e+00  -2.9311536e+00  -3.0700064e+00  -3.2264129e+00  -3.3623608e+00  -3.4788875e+00  -3.5609553e+00  -3.6257460e+00  -3.7188973e+00  -3.8569757e+00  -3.9983660e+00  -4.1112675e+00  -4.2110598e+00  -4.3215110e+00  -4.4421710e+00  -4.5579396e+00  -4.6547373e+00  -4.7437024e+00  -4.8408741e+00  -4.9383045e+00  -5.0360697e+00  -5.1401297e+00  -5.2383008e+00  -5.3381647e+00  -5.4371654e+00  -5.5302106e+00  -5.6360528e+00  -5.7474077e+00  -5.8311850e+00  -5.8942780e+00  -5.9573910e+00  -6.0495198e+00  -6.1925187e+00  -6.3454815e+00  -6.4653866e+00  -6.5624911e+00  -6.6656452e+00  -6.7753500e+00  -6.8830189e+00  -6.9966385e+00  -7.1078229e+00  -7.2000357e+00  -7.2803556e+00  -7.3545781e+00  -7.4254882e+00  -7.4851167e+00  -7.5603712e+00  -7.6660787e+00  -7.7892488e+00  -7.9061857e+00  -8.0194929e+00  -8.1447610e+00  -8.2821364e+00  -8.4039542e+00  -8.4983682e+00  -8.5942568e+00  -8.6965935e+00  -8.8030442e+00  -8.9087054e+00  -8.9876379e+00  -9.0512070e+00  -9.1327687e+00  -9.2503786e+00  -9.3705153e+00  -9.4893519e+00  -9.6166114e+00  -9.7341842e+00
3.6411789e-01   2.4908358e-01   1.3763370e-01   3.8293617e-02  -4.3962321e-02  -1.4417530e-01  -2.9203715e-01  -4.6475537e-01  -6.1627495e-01  -7.1764152e-01  -7.8237495e-01  -8.5399089e-01  -9.4124301e-01  -1.0283835e+00  -1.1323217e+00  -1.2463067e+00  -1.3251011e+00  -1.3746678e+00  -1.4341546e+00  -1.5134203e+00  -1.6029025e+00  -1.7035789e+00  -1.8149812e+00  -1.9364344e+00  -2.0589929e+00  -2.1935841e+00  -2.3376734e+00  -2.4596886e+00  -2.5481047e+00  -2.6210976e+00  -2.6872765e+00  -2.7436302e+00  -2.7823814e+00  -2.8416593e+00  -2.9536167e+00  -3.1083801e+00  -3.2532744e+00  -3.3679918e+00  -3.4759134e+00  -3.5620756e+00  -3.6312874e+00  -3.7213779e+00  -3.8543055e+00  -3.9953782e+00  -4.1161975e+00  -4.2220879e+00  -4.3289979e+00  -4.4431108e+00  -4.5556242e+00  -4.6529054e+00  -4.7322395e+00  -4.8211345e+00  -4.9250333e+00  -5.0293524e+00  -5.1377634e+00  -5.2456854e+00  -5.3551772e+00  -5.4581169e+00  -5.5564396e+00  -5.6683329e+00  -5.7786138e+00  -5.8585595e+00  -5.9195815e+00  -5.9787813e+00  -6.0532795e+00  -6.1647023e+00  -6.2983613e+00  -6.4232005e+00  -6.5281988e+00  -6.6253575e+00  -6.7287025e+00  -6.8405734e+00  -6.9674073e+00  -7.0908582e+00  -7.1863758e+00  -7.2636835e+00  -7.3400454e+00  -7.4220289e+00  -7.4957411e+00  -7.5809657e+00  -7.6926309e+00  -7.8152290e+00  -7.9297412e+00  -8.0424895e+00  -8.1613458e+00  -8.2892926e+00  -8.4054503e+00  -8.4985077e+00  -8.5853265e+00  -8.6670576e+00  -8.7617525e+00  -8.8745778e+00  -8.9620107e+00  -9.0138233e+00  -9.0712210e+00  -9.1746874e+00  -9.3033801e+00  -9.4460860e+00  -9.5952057e+00  -9.7214610e+00
3.3349839e-01   2.4020858e-01   1.4465750e-01   4.1181683e-02  -5.6846811e-02  -1.6231734e-01  -2.9488147e-01  -4.4364878e-01  -5.8082999e-01  -6.8471029e-01  -7.5874228e-01  -8.3324844e-01  -9.1676340e-01  -1.0030304e+00  -1.1162915e+00  -1.2576995e+00  -1.3690439e+00  -1.4323845e+00  -1.4859076e+00  -1.5544524e+00  -1.6375164e+00  -1.7328231e+00  -1.8400812e+00  -1.9586804e+00  -2.0827852e+00  -2.2268710e+00  -2.3900450e+00  -2.5211643e+00  -2.5955783e+00  -2.6381411e+00  -2.6749315e+00  -2.7240105e+00  -2.7914789e+00  -2.8857315e+00  -3.0099374e+00  -3.1540112e+00  -3.2765236e+00  -3.3737086e+00  -3.4807116e+00  -3.5839169e+00  -3.6716822e+00  -3.7679094e+00  -3.8925577e+00  -4.0194597e+00  -4.1321258e+00  -4.2360499e+00  -4.3451891e+00  -4.4646767e+00  -4.5817397e+00  -4.6853404e+00  -4.7613612e+00  -4.8362482e+00  -4.9251490e+00  -5.0122237e+00  -5.1030496e+00  -5.2084802e+00  -5.3296149e+00  -5.4446628e+00  -5.5568023e+00  -5.6820627e+00  -5.7967221e+00  -5.8756260e+00  -5.9289911e+00  -5.9844064e+00  -6.0627289e+00  -6.1641882e+00  -6.2803833e+00  -6.3971124e+00  -6.4982538e+00  -6.5820959e+00  -6.6754098e+00  -6.7927212e+00  -6.9309734e+00  -7.0553126e+00  -7.1405151e+00  -7.2049269e+00  -7.2798225e+00  -7.3721498e+00  -7.4639843e+00  -7.5669938e+00  -7.6992774e+00  -7.8411924e+00  -7.9680070e+00  -8.0822148e+00  -8.1899039e+00  -8.2993879e+00  -8.4008679e+00  -8.4908494e+00  -8.5723704e+00  -8.6373689e+00  -8.7191275e+00  -8.8349815e+00  -8.9334436e+00  -8.9876080e+00  -9.0415371e+00  -9.1407270e+00  -9.2672257e+00  -9.4033548e+00  -9.5370228e+00  -9.6467228e+00
2.8084344e-01   2.1561593e-01   1.4580232e-01   5.1859337e-02  -4.4467994e-02  -1.4329749e-01  -2.6089958e-01  -4.0221048e-01  -5.4650025e-01  -6.5997754e-01  -7.3975212e-01  -8.1544100e-01  -8.9789170e-01  -9.8237412e-01  -1.0887947e+00  -1.2305285e+00  -1.3601836e+00  -1.4429854e+00  -1.4996898e+00  -1.5602795e+00  -1.6406498e+00  -1.7406469e+00  -1.8511043e+00  -1.9691525e+00  -2.1016949e+00  -2.2594862e+00  -2.4300263e+00  -2.5572795e+00  -2.6208346e+00  -2.6523570e+00  -2.6849986e+00  -2.7425784e+00  -2.8396866e+00  -2.9567593e+00  -3.0688744e+00  -3.1764822e+00  -3.2716770e+00  -3.3645871e+00  -3.4829066e+00  -3.6090679e+00  -3.7200075e+00  -3.8289698e+00  -3.9460221e+00  -4.0476584e+00  -4.1317262e+00  -4.2192254e+00  -4.3342430e+00  -4.4736879e+00  -4.6081125e+00  -4.7227923e+00  -4.7963139e+00  -4.8509682e+00  -4.9141772e+00  -4.9823938e+00  -5.0592347e+00  -5.1639537e+00  -5.2977952e+00  -5.4265592e+00  -5.5479949e+00  -5.6764557e+00  -5.7916459e+00  -5.8706806e+00  -5.9176467e+00  -5.9769509e+00  -6.0773689e+00  -6.1889130e+00  -6.2936968e+00  -6.3933233e+00  -6.4839570e+00  -6.5626883e+00  -6.6565025e+00  -6.7795522e+00  -6.9169630e+00  -7.0306901e+00  -7.1027202e+00  -7.1595983e+00  -7.2379732e+00  -7.3382320e+00  -7.4456683e+00  -7.5656646e+00  -7.7168200e+00  -7.8736127e+00  -8.0005575e+00  -8.1007603e+00  -8.1954386e+00  -8.2982003e+00  -8.3940324e+00  -8.4810419e+00  -8.5584711e+00  -8.6196198e+00  -8.7026298e+00  -8.8261057e+00  -8.9411741e+00  -9.0163144e+00  -9.0889424e+00  -9.1876080e+00  -9.2894735e+00  -9.3809698e+00  -9.4661173e+00  -9.5450952e+00
2.4854562e-01   1.9617004e-01   1.4292553e-01   6.1520339e-02  -2.5503929e-02  -1.1433879e-01  -2.2193219e-01  -3.6774294e-01  -5.2358333e-01  -6.3599672e-01  -7.1050638e-01  -7.9048426e-01  -8.8690289e-01  -9.8182585e-01  -1.0818902e+00  -1.2076448e+00  -1.3321269e+00  -1.4214809e+00  -1.4821409e+00  -1.5447485e+00  -1.6364485e+00  -1.7527899e+00  -1.8683861e+00  -1.9790161e+00  -2.1110204e+00  -2.2714813e+00  -2.4346833e+00  -2.5497263e+00  -2.6027780e+00  -2.6304530e+00  -2.6752391e+00  -2.7569526e+00  -2.8787816e+00  -3.0070523e+00  -3.1059272e+00  -3.1826686e+00  -3.2595154e+00  -3.3569305e+00  -3.4873093e+00  -3.6272783e+00  -3.7557542e+00  -3.8807914e+00  -3.9974815e+00  -4.0783761e+00  -4.1301709e+00  -4.1977437e+00  -4.3199902e+00  -4.4769004e+00  -4.6200597e+00  -4.7337286e+00  -4.7985438e+00  -4.8368689e+00  -4.8911895e+00  -4.9676763e+00  -5.0564293e+00  -5.1686779e+00  -5.3026330e+00  -5.4277558e+00  -5.5425942e+00  -5.6598968e+00  -5.7697124e+00  -5.8493698e+00  -5.8956016e+00  -5.9599503e+00  -6.0733368e+00  -6.1935684e+00  -6.3010367e+00  -6.4022940e+00  -6.4979616e+00  -6.5858829e+00  -6.6830718e+00  -6.8010321e+00  -6.9240694e+00  -7.0254485e+00  -7.0937589e+00  -7.1593528e+00  -7.2545705e+00  -7.3678509e+00  -7.4879074e+00  -7.6179373e+00  -7.7758957e+00  -7.9304323e+00  -8.0375052e+00  -8.1113584e+00  -8.1964096e+00  -8.3063886e+00  -8.4079455e+00  -8.4919446e+00  -8.5661117e+00  -8.6369627e+00  -8.7375743e+00  -8.8736162e+00  -9.0029683e+00  -9.1019801e+00  -9.1949845e+00  -9.2853765e+00  -9.3514633e+00  -9.3953930e+00  -9.4382768e+00  -9.4962758e+00
2.4552798e-01   1.8210666e-01   1.2437693e-01   4.7082214e-02  -3.3011389e-02  -1.1516756e-01  -2.1724387e-01  -3.6115193e-01  -5.1239592e-01  -6.1212499e-01  -6.7644483e-01  -7.5960984e-01  -8.7412567e-01  -9.9024134e-01  -1.0951107e+00  -1.2022132e+00  -1.3037368e+00  -1.3881411e+00  -1.4642564e+00  -1.5583247e+00  -1.6816111e+00  -1.8080034e+00  -1.9044899e+00  -1.9824903e+00  -2.0952376e+00  -2.2482626e+00  -2.4032305e+00  -2.5140745e+00  -2.5676421e+00  -2.5992001e+00  -2.6609653e+00  -2.7693149e+00  -2.9045695e+00  -3.0338761e+00  -3.1289006e+00  -3.1967016e+00  -3.2690661e+00  -3.3653027e+00  -3.4873961e+00  -3.6206795e+00  -3.7575773e+00  -3.8981628e+00  -4.0250759e+00  -4.1070799e+00  -4.1494061e+00  -4.2099801e+00  -4.3353610e+00  -4.4900102e+00  -4.6190573e+00  -4.7188600e+00  -4.7812749e+00  -4.8223906e+00  -4.8902520e+00  -4.9930754e+00  -5.1056631e+00  -5.2261028e+00  -5.3474085e+00  -5.4530907e+00  -5.5495809e+00  -5.6480472e+00  -5.7470448e+00  -5.8276276e+00  -5.8815784e+00  -5.9501163e+00  -6.0569444e+00  -6.1741641e+00  -6.2974865e+00  -6.4228967e+00  -6.5358543e+00  -6.6333223e+00  -6.7288064e+00  -6.8391580e+00  -6.9542305e+00  -7.0537099e+00  -7.1253545e+00  -7.1971851e+00  -7.3035782e+00  -7.4340657e+00  -7.5695335e+00  -7.7037253e+00  -7.8517331e+00  -7.9850493e+00  -8.0661227e+00  -8.1236770e+00  -8.2078632e+00  -8.3246193e+00  -8.4321693e+00  -8.5134516e+00  -8.5842174e+00  -8.6661447e+00  -8.7840514e+00  -8.9261973e+00  -9.0611683e+00  -9.1788303e+00  -9.2837919e+00  -9.3633900e+00  -9.4079415e+00  -9.4335670e+00  -9.4672011e+00  -9.5261890e+00
2.6496087e-01   1.8092803e-01   1.0847853e-01   3.2873746e-02  -4.4005793e-02  -1.3227823e-01  -2.4511194e-01  -3.8774381e-01  -5.2696147e-01  -6.1720232e-01  -6.7589787e-01  -7.5395478e-01  -8.7123523e-01  -1.0006857e+00  -1.1122565e+00  -1.2022888e+00  -1.2775982e+00  -1.3555682e+00  -1.4549066e+00  -1.5940283e+00  -1.7531995e+00  -1.8780566e+00  -1.9386800e+00  -1.9739432e+00  -2.0603012e+00  -2.2005698e+00  -2.3459500e+00  -2.4581199e+00  -2.5317223e+00  -2.5909502e+00  -2.6788328e+00  -2.8072744e+00  -2.9431596e+00  -3.0618060e+00  -3.1485334e+00  -3.2157286e+00  -3.2926784e+00  -3.3821940e+00  -3.4791290e+00  -3.5922118e+00  -3.7282231e+00  -3.8784581e+00  -4.0204301e+00  -4.1195984e+00  -4.1727498e+00  -4.2372967e+00  -4.3599058e+00  -4.5000574e+00  -4.6076566e+00  -4.6942358e+00  -4.7650584e+00  -4.8231869e+00  -4.9078947e+00  -5.0259985e+00  -5.1468071e+00  -5.2634349e+00  -5.3699886e+00  -5.4629706e+00  -5.5511252e+00  -5.6398203e+00  -5.7302810e+00  -5.8131759e+00  -5.8803032e+00  -5.9553013e+00  -6.0467228e+00  -6.1508332e+00  -6.2835235e+00  -6.4264542e+00  -6.5480996e+00  -6.6476293e+00  -6.7462964e+00  -6.8631583e+00  -6.9857455e+00  -7.0921900e+00  -7.1722693e+00  -7.2442625e+00  -7.3443266e+00  -7.4795099e+00  -7.6260876e+00  -7.7655283e+00  -7.8975672e+00  -7.9968948e+00  -8.0510679e+00  -8.1053059e+00  -8.1919938e+00  -8.3046504e+00  -8.4134758e+00  -8.5000183e+00  -8.5754306e+00  -8.6638088e+00  -8.7849302e+00  -8.9192626e+00  -9.0498285e+00  -9.1803017e+00  -9.2973163e+00  -9.3812899e+00  -9.4299832e+00  -9.4623300e+00  -9.5064243e+00  -9.5762893e+00
2.6750211e-01   1.7884765e-01   1.0343798e-01   3.3808860e-02  -4.7038518e-02  -1.5628045e-01  -2.9415070e-01  -4.4289921e-01  -5.7218695e-01  -6.5493061e-01  -7.0857745e-01  -7.7716699e-01  -8.8448769e-01  -1.0105536e+00  -1.1189269e+00  -1.1901737e+00  -1.2437685e+00  -1.3188936e+00  -1.4371615e+00  -1.6048883e+00  -1.7848715e+00  -1.9116984e+00  -1.9546199e+00  -1.9647130e+00  -2.0294197e+00  -2.1541959e+00  -2.2866851e+00  -2.3977331e+00  -2.4969770e+00  -2.5919279e+00  -2.7047649e+00  -2.8403579e+00  -2.9689800e+00  -3.0760588e+00  -3.1528914e+00  -3.2217861e+00  -3.3076195e+00  -3.3952551e+00  -3.4766080e+00  -3.5777620e+00  -3.7071534e+00  -3.8522013e+00  -3.9927465e+00  -4.0963132e+00  -4.1587094e+00  -4.2291046e+00  -4.3469344e+00  -4.4765137e+00  -4.5753591e+00  -4.6597328e+00  -4.7437719e+00  -4.8249619e+00  -4.9262000e+00  -5.0437999e+00  -5.1495726e+00  -5.2481452e+00  -5.3474197e+00  -5.4456541e+00  -5.5417662e+00  -5.6372857e+00  -5.7313271e+00  -5.8213575e+00  -5.9046309e+00  -5.9920357e+00  -6.0736101e+00  -6.1592985e+00  -6.2792110e+00  -6.4124918e+00  -6.5218893e+00  -6.6112522e+00  -6.7147665e+00  -6.8460811e+00  -6.9834413e+00  -7.1023561e+00  -7.2022564e+00  -7.2851639e+00  -7.3713367e+00  -7.4859816e+00  -7.6225252e+00  -7.7635126e+00  -7.8850682e+00  -7.9548199e+00  -7.9849361e+00  -8.0338498e+00  -8.1191905e+00  -8.2312701e+00  -8.3520646e+00  -8.4607944e+00  -8.5555661e+00  -8.6491576e+00  -8.7602985e+00  -8.8750906e+00  -8.9884684e+00  -9.1151277e+00  -9.2396773e+00  -9.3399374e+00  -9.4043955e+00  -9.4479115e+00  -9.5031814e+00  -9.5818900e+00
2.4486151e-01   1.6977295e-01   1.0438438e-01   4.0402109e-02  -4.9779943e-02  -1.7834026e-01  -3.3303702e-01  -4.8874219e-01  -6.1227816e-01  -6.8274410e-01  -7.2634738e-01  -7.9543099e-01  -9.0539315e-01  -1.0262422e+00  -1.1244461e+00  -1.1812716e+00  -1.2282047e+00  -1.3094860e+00  -1.4376724e+00  -1.6033814e+00  -1.7746073e+00  -1.9076348e+00  -1.9688358e+00  -1.9906738e+00  -2.0511378e+00  -2.1627278e+00  -2.2799328e+00  -2.3813724e+00  -2.4872287e+00  -2.5931515e+00  -2.7120315e+00  -2.8427187e+00  -2.9631777e+00  -3.0654946e+00  -3.1376555e+00  -3.2075521e+00  -3.2971376e+00  -3.3880643e+00  -3.4755901e+00  -3.5846973e+00  -3.7141786e+00  -3.8490289e+00  -3.9691509e+00  -4.0528439e+00  -4.1110929e+00  -4.1848656e+00  -4.3038531e+00  -4.4358064e+00  -4.5385394e+00  -4.6232691e+00  -4.7119597e+00  -4.8066643e+00  -4.9194684e+00  -5.0339037e+00  -5.1253678e+00  -5.2167328e+00  -5.3256281e+00  -5.4384763e+00  -5.5453663e+00  -5.6532935e+00  -5.7541554e+00  -5.8461024e+00  -5.9419545e+00  -6.0483283e+00  -6.1352127e+00  -6.2052826e+00  -6.2922335e+00  -6.3899574e+00  -6.4737994e+00  -6.5538940e+00  -6.6638367e+00  -6.8021434e+00  -6.9437255e+00  -7.0709112e+00  -7.1941326e+00  -7.2990742e+00  -7.3793060e+00  -7.4666847e+00  -7.5809441e+00  -7.7151407e+00  -7.8303442e+00  -7.8881819e+00  -7.9096476e+00  -7.9529219e+00  -8.0395567e+00  -8.1663484e+00  -8.3079675e+00  -8.4371182e+00  -8.5477603e+00  -8.6436135e+00  -8.7401570e+00  -8.8344575e+00  -8.9278035e+00  -9.0348545e+00  -9.1506820e+00  -9.2582907e+00  -9.3331544e+00  -9.3866163e+00  -9.4521899e+00  -9.5363166e+00
2.1652405e-01   1.5394241e-01   1.0057008e-01   4.3724260e-02  -4.8309847e-02  -1.7767147e-01  -3.2493414e-01  -4.7419617e-01  -5.9127243e-01  -6.5620222e-01  -7.0558973e-01  -7.9822776e-01  -9.3020695e-01  -1.0531760e+00  -1.1404064e+00  -1.1872906e+00  -1.2369718e+00  -1.3308403e+00  -1.4677506e+00  -1.6159876e+00  -1.7546263e+00  -1.8829822e+00  -1.9778631e+00  -2.0350713e+00  -2.1043312e+00  -2.2063198e+00  -2.3102547e+00  -2.3981064e+00  -2.4913229e+00  -2.5854297e+00  -2.6980091e+00  -2.8265932e+00  -2.9468161e+00  -3.0467273e+00  -3.1158366e+00  -3.1843016e+00  -3.2683657e+00  -3.3568474e+00  -3.4563375e+00  -3.5868633e+00  -3.7319633e+00  -3.8604847e+00  -3.9527760e+00  -4.0130826e+00  -4.0707249e+00  -4.1537138e+00  -4.2813350e+00  -4.4219234e+00  -4.5318110e+00  -4.6123834e+00  -4.6866322e+00  -4.7670785e+00  -4.8750823e+00  -4.9927044e+00  -5.0956855e+00  -5.2091428e+00  -5.3396610e+00  -5.4629331e+00  -5.5750215e+00  -5.6900542e+00  -5.7875473e+00  -5.8684629e+00  -5.9647115e+00  -6.0836313e+00  -6.1848396e+00  -6.2516428e+00  -6.3066074e+00  -6.3626501e+00  -6.4260378e+00  -6.5136617e+00  -6.6374527e+00  -6.7770893e+00  -6.9126263e+00  -7.0369400e+00  -7.1651753e+00  -7.2817077e+00  -7.3671434e+00  -7.4441834e+00  -7.5413693e+00  -7.6599372e+00  -7.7673019e+00  -7.8328540e+00  -7.8697877e+00  -7.9203337e+00  -8.0119010e+00  -8.1472951e+00  -8.2909096e+00  -8.4172626e+00  -8.5309661e+00  -8.6324071e+00  -8.7192973e+00  -8.7945094e+00  -8.8712789e+00  -8.9599339e+00  -9.0618052e+00  -9.1691473e+00  -9.2557941e+00  -9.3250374e+00  -9.3993526e+00  -9.4829676e+00
2.2157626e-01   1.5213546e-01   9.1222494e-02   2.9069244e-02  -6.3451576e-02  -1.8055369e-01  -3.0047126e-01  -4.2481281e-01  -5.3163716e-01  -6.0400026e-01  -6.7646512e-01  -7.9531955e-01  -9.4166810e-01  -1.0637496e+00  -1.1444476e+00  -1.1902902e+00  -1.2480744e+00  -1.3585623e+00  -1.5092007e+00  -1.6422433e+00  -1.7399499e+00  -1.8401311e+00  -1.9482103e+00  -2.0359513e+00  -2.1233684e+00  -2.2337077e+00  -2.3391354e+00  -2.4157965e+00  -2.4904688e+00  -2.5743227e+00  -2.6863852e+00  -2.8207735e+00  -2.9471805e+00  -3.0466608e+00  -3.1164715e+00  -3.1815288e+00  -3.2514696e+00  -3.3268636e+00  -3.4270657e+00  -3.5763751e+00  -3.7403374e+00  -3.8604439e+00  -3.9282361e+00  -3.9821205e+00  -4.0549265e+00  -4.1520468e+00  -4.2814619e+00  -4.4177315e+00  -4.5292395e+00  -4.6096724e+00  -4.6696530e+00  -4.7288534e+00  -4.8239678e+00  -4.9457105e+00  -5.0714436e+00  -5.2096068e+00  -5.3473940e+00  -5.4692681e+00  -5.5850392e+00  -5.7032185e+00  -5.7936014e+00  -5.8623351e+00  -5.9489670e+00  -6.0641086e+00  -6.1755231e+00  -6.2540435e+00  -6.2998018e+00  -6.3352702e+00  -6.4010718e+00  -6.5126550e+00  -6.6501528e+00  -6.7847759e+00  -6.9094474e+00  -7.0210613e+00  -7.1308610e+00  -7.2370881e+00  -7.3276697e+00  -7.4103318e+00  -7.5011462e+00  -7.6033383e+00  -7.7089391e+00  -7.7997089e+00  -7.8664423e+00  -7.9332535e+00  -8.0279198e+00  -8.1562518e+00  -8.2853709e+00  -8.3949668e+00  -8.5022095e+00  -8.6115676e+00  -8.6973880e+00  -8.7554686e+00  -8.8174820e+00  -8.9028396e+00  -9.0100722e+00  -9.1276308e+00  -9.2340192e+00  -9.3221373e+00  -9.4029612e+00  -9.4860363e+00
2.7634073e-01   1.7986474e-01   8.1490294e-02  -1.3312562e-02  -1.2027335e-01  -2.2743533e-01  -3.1533992e-01  -4.0707673e-01  -5.0301628e-01  -5.8656535e-01  -6.7881468e-01  -8.0711628e-01  -9.4933121e-01  -1.0612218e+00  -1.1354822e+00  -1.1832439e+00  -1.2473432e+00  -1.3699643e+00  -1.5284577e+00  -1.6489544e+00  -1.7154782e+00  -1.7828068e+00  -1.8848540e+00  -1.9926954e+00  -2.1061766e+00  -2.2396964e+00  -2.3551596e+00  -2.4249824e+00  -2.4907174e+00  -2.5809853e+00  -2.7005989e+00  -2.8343188e+00  -2.9589115e+00  -3.0608294e+00  -3.1391749e+00  -3.2035027e+00  -3.2626938e+00  -3.3288506e+00  -3.4257050e+00  -3.5798025e+00  -3.7435785e+00  -3.8491491e+00  -3.9079082e+00  -3.9774788e+00  -4.0763121e+00  -4.1858453e+00  -4.3009050e+00  -4.4082676e+00  -4.5062433e+00  -4.5898474e+00  -4.6524600e+00  -4.7091741e+00  -4.7987087e+00  -4.9205755e+00  -5.0558126e+00  -5.1933820e+00  -5.3123245e+00  -5.4185980e+00  -5.5325409e+00  -5.6515272e+00  -5.7422160e+00  -5.8101071e+00  -5.8918266e+00  -6.0042012e+00  -6.1301398e+00  -6.2359048e+00  -6.2970711e+00  -6.3389833e+00  -6.4239022e+00  -6.5523874e+00  -6.6830539e+00  -6.7983945e+00  -6.9087777e+00  -7.0080379e+00  -7.0970233e+00  -7.1887911e+00  -7.2842886e+00  -7.3787526e+00  -7.4674211e+00  -7.5548571e+00  -7.6619852e+00  -7.7806665e+00  -7.8776618e+00  -7.9605272e+00  -8.0562278e+00  -8.1722575e+00  -8.2873769e+00  -8.3802374e+00  -8.4718119e+00  -8.5786246e+00  -8.6706369e+00  -8.7316148e+00  -8.7986203e+00  -8.9039375e+00  -9.0390531e+00  -9.1726718e+00  -9.2865627e+00  -9.3752210e+00  -9.4535011e+00  -9.5407216e+00
3.4507963e-01   2.1911469e-01   7.8827478e-02  -5.5807146e-02  -1.8553652e-01  -2.9393550e-01  -3.6485391e-01  -4.3578405e-01  -5.2397749e-01  -6.1458491e-01  -7.1951648e-01  -8.4962308e-01  -9.7615011e-01  -1.0648215e+00  -1.1259517e+00  -1.1777997e+00  -1.2522542e+00  -1.3788227e+00  -1.5251536e+00  -1.6261736e+00  -1.6781638e+00  -1.7335846e+00  -1.8325165e+00  -1.9523297e+00  -2.0840458e+00  -2.2297540e+00  -2.3470679e+00  -2.4179161e+00  -2.4943721e+00  -2.6040054e+00  -2.7286969e+00  -2.8479317e+00  -2.9647902e+00  -3.0813421e+00  -3.1797204e+00  -3.2477274e+00  -3.3016579e+00  -3.3631874e+00  -3.4548752e+00  -3.5961700e+00  -3.7391938e+00  -3.8358490e+00  -3.9111804e+00  -4.0116835e+00  -4.1315444e+00  -4.2418877e+00  -4.3320868e+00  -4.4040024e+00  -4.4843276e+00  -4.5732146e+00  -4.6553873e+00  -4.7289748e+00  -4.8164996e+00  -4.9225855e+00  -5.0425373e+00  -5.1599120e+00  -5.2546102e+00  -5.3410339e+00  -5.4449638e+00  -5.5681923e+00  -5.6807504e+00  -5.7686725e+00  -5.8542521e+00  -5.9668223e+00  -6.1044991e+00  -6.2317092e+00  -6.3105568e+00  -6.3714023e+00  -6.4776670e+00  -6.6072036e+00  -6.7157198e+00  -6.8050754e+00  -6.8959352e+00  -6.9838495e+00  -7.0671374e+00  -7.1634043e+00  -7.2727689e+00  -7.3797506e+00  -7.4670638e+00  -7.5411195e+00  -7.6439783e+00  -7.7802175e+00  -7.9048954e+00  -8.0025847e+00  -8.0967361e+00  -8.2011798e+00  -8.3077074e+00  -8.3868245e+00  -8.4556276e+00  -8.5447091e+00  -8.6425306e+00  -8.7286801e+00  -8.8259597e+00  -8.9643252e+00  -9.1261272e+00  -9.2651784e+00  -9.3715650e+00  -9.4512908e+00  -9.5256866e+00  -9.6191603e+00
3.7092291e-01   2.3403360e-01   8.7036143e-02  -5.1697095e-02  -1.9117448e-01  -3.1589966e-01  -3.9855964e-01  -4.7259891e-01  -5.6090243e-01  -6.5256272e-01  -7.6273017e-01  -8.9551717e-01  -1.0099594e+00  -1.0777914e+00  -1.1280896e+00  -1.1870367e+00  -1.2723977e+00  -1.3902272e+00  -1.5059016e+00  -1.5849820e+00  -1.6396999e+00  -1.7100496e+00  -1.8175022e+00  -1.9377777e+00  -2.0655810e+00  -2.1995065e+00  -2.3047244e+00  -2.3760626e+00  -2.4654033e+00  -2.5907529e+00  -2.7195499e+00  -2.8306016e+00  -2.9523293e+00  -3.0979077e+00  -3.2281400e+00  -3.3121292e+00  -3.3681798e+00  -3.4196379e+00  -3.4913650e+00  -3.6000840e+00  -3.7136472e+00  -3.8145986e+00  -3.9256371e+00  -4.0537075e+00  -4.1696244e+00  -4.2642018e+00  -4.3406738e+00  -4.4055346e+00  -4.4846402e+00  -4.5814478e+00  -4.6859381e+00  -4.7781278e+00  -4.8586795e+00  -4.9334536e+00  -5.0224261e+00  -5.1210112e+00  -5.2074867e+00  -5.2848597e+00  -5.3830065e+00  -5.5195176e+00  -5.6675714e+00  -5.7847918e+00  -5.8755199e+00  -5.9831851e+00  -6.1177472e+00  -6.2454492e+00  -6.3302518e+00  -6.4078354e+00  -6.5315263e+00  -6.6606591e+00  -6.7495031e+00  -6.8101077e+00  -6.8748210e+00  -6.9542537e+00  -7.0487539e+00  -7.1667501e+00  -7.2940744e+00  -7.4076135e+00  -7.4911360e+00  -7.5563782e+00  -7.6539337e+00  -7.7967088e+00  -7.9420686e+00  -8.0536568e+00  -8.1458991e+00  -8.2423840e+00  -8.3458662e+00  -8.4192074e+00  -8.4701594e+00  -8.5350475e+00  -8.6284345e+00  -8.7372186e+00  -8.8660636e+00  -9.0252963e+00  -9.1889683e+00  -9.3164715e+00  -9.4162162e+00  -9.5034850e+00  -9.5894775e+00  -9.6904248e+00
3.3641228e-01   2.1079722e-01   9.4548186e-02  -1.0902337e-02  -1.4380590e-01  -2.8981383e-01  -3.9485778e-01  -4.7525486e-01  -5.5867121e-01  -6.4505330e-01  -7.5921005e-01  -9.0373239e-01  -1.0252547e+00  -1.0915529e+00  -1.1387193e+00  -1.1999986e+00  -1.2894899e+00  -1.3937653e+00  -1.4802594e+00  -1.5470812e+00  -1.6174000e+00  -1.7151594e+00  -1.8375542e+00  -1.9548875e+00  -2.0655126e+00  -2.1687473e+00  -2.2469285e+00  -2.3089423e+00  -2.4041532e+00  -2.5395647e+00  -2.6771704e+00  -2.7983146e+00  -2.9375760e+00  -3.1042927e+00  -3.2553035e+00  -3.3560670e+00  -3.4182004e+00  -3.4614044e+00  -3.5151972e+00  -3.5967366e+00  -3.6882726e+00  -3.7929125e+00  -3.9289624e+00  -4.0672667e+00  -4.1632560e+00  -4.2381010e+00  -4.3199677e+00  -4.4083007e+00  -4.5005437e+00  -4.6023385e+00  -4.7194318e+00  -4.8211217e+00  -4.8950369e+00  -4.9491220e+00  -5.0197231e+00  -5.1167791e+00  -5.2151812e+00  -5.2986442e+00  -5.3956567e+00  -5.5366431e+00  -5.6996284e+00  -5.8305812e+00  -5.9228663e+00  -6.0190844e+00  -6.1334278e+00  -6.2461753e+00  -6.3335547e+00  -6.4253735e+00  -6.5613670e+00  -6.6960209e+00  -6.7774785e+00  -6.8170485e+00  -6.8661381e+00  -6.9531458e+00  -7.0687304e+00  -7.2026702e+00  -7.3325647e+00  -7.4400542e+00  -7.5134336e+00  -7.5689747e+00  -7.6597216e+00  -7.7998140e+00  -7.9535982e+00  -8.0790809e+00  -8.1763910e+00  -8.2711216e+00  -8.3763805e+00  -8.4587690e+00  -8.5147589e+00  -8.5676938e+00  -8.6436631e+00  -8.7470500e+00  -8.8816967e+00  -9.0368982e+00  -9.1836937e+00  -9.2956313e+00  -9.3988293e+00  -9.5104440e+00  -9.6162152e+00  -9.7194469e+00
2.7313759e-01   1.6539072e-01   8.1617652e-02   8.2143927e-03  -1.1400276e-01  -2.6866676e-01  -3.8110047e-01  -4.4972376e-01  -5.1224503e-01  -5.9200626e-01  -7.1922313e-01  -8.8709755e-01  -1.0332337e+00  -1.1163165e+00  -1.1632594e+00  -1.2169430e+00  -1.3036494e+00  -1.4000961e+00  -1.4735140e+00  -1.5368975e+00  -1.6208081e+00  -1.7412267e+00  -1.8788281e+00  -1.9957702e+00  -2.0850946e+00  -2.1529541e+00  -2.2077590e+00  -2.2665863e+00  -2.3686774e+00  -2.5083971e+00  -2.6495756e+00  -2.7803833e+00  -2.9251327e+00  -3.0823379e+00  -3.2250432e+00  -3.3299885e+00  -3.4038977e+00  -3.4605157e+00  -3.5226755e+00  -3.6014138e+00  -3.6830999e+00  -3.7823364e+00  -3.9226833e+00  -4.0620512e+00  -4.1504011e+00  -4.2206952e+00  -4.3134712e+00  -4.4220346e+00  -4.5235430e+00  -4.6289674e+00  -4.7545705e+00  -4.8609718e+00  -4.9333552e+00  -4.9858323e+00  -5.0575803e+00  -5.1624200e+00  -5.2729499e+00  -5.3638311e+00  -5.4586442e+00  -5.5888119e+00  -5.7370335e+00  -5.8623119e+00  -5.9585769e+00  -6.0474614e+00  -6.1388660e+00  -6.2330155e+00  -6.3196666e+00  -6.4148818e+00  -6.5474267e+00  -6.6852575e+00  -6.7770626e+00  -6.8249588e+00  -6.8845039e+00  -6.9877343e+00  -7.1151821e+00  -7.2444388e+00  -7.3592175e+00  -7.4548238e+00  -7.5207968e+00  -7.5671474e+00  -7.6432598e+00  -7.7693489e+00  -7.9203776e+00  -8.0591086e+00  -8.1686522e+00  -8.2668361e+00  -8.3735908e+00  -8.4706973e+00  -8.5517519e+00  -8.6176225e+00  -8.6813663e+00  -8.7607065e+00  -8.8732307e+00  -9.0067566e+00  -9.1381231e+00  -9.2445420e+00  -9.3553694e+00  -9.4856695e+00  -9.6004126e+00  -9.6983144e+00
2.6295174e-01   1.5601944e-01   6.7789662e-02  -8.2223450e-03  -1.2477476e-01  -2.6778265e-01  -3.6922577e-01  -4.1927318e-01  -4.6112927e-01  -5.3951184e-01  -6.8116551e-01  -8.6904515e-01  -1.0402155e+00  -1.1481798e+00  -1.2017236e+00  -1.2483630e+00  -1.3289811e+00  -1.4217093e+00  -1.4953394e+00  -1.5575675e+00  -1.6408400e+00  -1.7688740e+00  -1.9189084e+00  -2.0400624e+00  -2.1135499e+00  -2.1579303e+00  -2.2041901e+00  -2.2672175e+00  -2.3703928e+00  -2.4993375e+00  -2.6257737e+00  -2.7491146e+00  -2.8825589e+00  -3.0177145e+00  -3.1459950e+00  -3.2566333e+00  -3.3535431e+00  -3.4422765e+00  -3.5277989e+00  -3.6136981e+00  -3.6893629e+00  -3.7798818e+00  -3.9136746e+00  -4.0501535e+00  -4.1488928e+00  -4.2371564e+00  -4.3426601e+00  -4.4558965e+00  -4.5564547e+00  -4.6581758e+00  -4.7805536e+00  -4.8887124e+00  -4.9703371e+00  -5.0336929e+00  -5.1124904e+00  -5.2177782e+00  -5.3220018e+00  -5.4073676e+00  -5.4986324e+00  -5.6131650e+00  -5.7320451e+00  -5.8427748e+00  -5.9515045e+00  -6.0541618e+00  -6.1451162e+00  -6.2297888e+00  -6.3086510e+00  -6.3932695e+00  -6.5071270e+00  -6.6397899e+00  -6.7516506e+00  -6.8368981e+00  -6.9280333e+00  -7.0388091e+00  -7.1527365e+00  -7.2584080e+00  -7.3591026e+00  -7.4551165e+00  -7.5298850e+00  -7.5818937e+00  -7.6470306e+00  -7.7527211e+00  -7.8877885e+00  -8.0271237e+00  -8.1484144e+00  -8.2560711e+00  -8.3635342e+00  -8.4660558e+00  -8.5657207e+00  -8.6559596e+00  -8.7237288e+00  -8.7825226e+00  -8.8662287e+00  -8.9822056e+00  -9.1143561e+00  -9.2272707e+00  -9.3394544e+00  -9.4681426e+00  -9.5797017e+00  -9.6742763e+00
3.3442331e-01   2.1121056e-01   8.5826539e-02  -2.6641517e-02  -1.5019855e-01  -2.7479555e-01  -3.5983028e-01  -4.0162898e-01  -4.4304918e-01  -5.2991148e-01  -6.7358393e-01  -8.5588890e-01  -1.0323293e+00  -1.1635464e+00  -1.2381790e+00  -1.2896073e+00  -1.3592151e+00  -1.4403503e+00  -1.5178208e+00  -1.5891514e+00  -1.6730204e+00  -1.7985268e+00  -1.9505535e+00  -2.0713842e+00  -2.1386435e+00  -2.1817020e+00  -2.2333290e+00  -2.2967423e+00  -2.3861014e+00  -2.4917965e+00  -2.5938165e+00  -2.6972444e+00  -2.8104233e+00  -2.9274740e+00  -3.0545533e+00  -3.1858752e+00  -3.3106216e+00  -3.4242864e+00  -3.5246893e+00  -3.6150599e+00  -3.6886742e+00  -3.7732760e+00  -3.8947295e+00  -4.0224408e+00  -4.1354460e+00  -4.2519172e+00  -4.3745734e+00  -4.4902271e+00  -4.5877996e+00  -4.6783955e+00  -4.7813810e+00  -4.8822569e+00  -4.9732596e+00  -5.0455101e+00  -5.1269696e+00  -5.2242861e+00  -5.3127053e+00  -5.3926172e+00  -5.4911161e+00  -5.5991593e+00  -5.6915044e+00  -5.7808431e+00  -5.8930900e+00  -6.0172404e+00  -6.1309037e+00  -6.2250801e+00  -6.3055346e+00  -6.3868406e+00  -6.4880977e+00  -6.6147292e+00  -6.7398585e+00  -6.8579435e+00  -6.9716452e+00  -7.0696479e+00  -7.1495010e+00  -7.2262247e+00  -7.3228783e+00  -7.4334487e+00  -7.5329819e+00  -7.6124537e+00  -7.6886154e+00  -7.7867836e+00  -7.8997798e+00  -8.0183112e+00  -8.1392707e+00  -8.2592086e+00  -8.3716975e+00  -8.4690773e+00  -8.5637037e+00  -8.6622073e+00  -8.7367721e+00  -8.7914135e+00  -8.8684513e+00  -8.9878026e+00  -9.1295683e+00  -9.2483970e+00  -9.3549045e+00  -9.4674353e+00  -9.5648861e+00  -9.6546277e+00
3.9784044e-01   2.6235809e-01   1.1003695e-01  -3.3790985e-02  -1.7006440e-01  -2.8723636e-01  -3.6783807e-01  -4.1682080e-01  -4.7282268e-01  -5.6874990e-01  -6.9828835e-01  -8.4737956e-01  -1.0022845e+00  -1.1465658e+00  -1.2561611e+00  -1.3340236e+00  -1.4022917e+00  -1.4681975e+00  -1.5413355e+00  -1.6237532e+00  -1.7185263e+00  -1.8415813e+00  -1.9806832e+00  -2.0879262e+00  -2.1542085e+00  -2.2122279e+00  -2.2803107e+00  -2.3501831e+00  -2.4300422e+00  -2.5195936e+00  -2.6043959e+00  -2.6879496e+00  -2.7761563e+00  -2.8721785e+00  -2.9954915e+00  -3.1438800e+00  -3.2873565e+00  -3.4087813e+00  -3.5117190e+00  -3.6034179e+00  -3.6779229e+00  -3.7585730e+00  -3.8660113e+00  -3.9836259e+00  -4.1056253e+00  -4.2451729e+00  -4.3885820e+00  -4.5157794e+00  -4.6146790e+00  -4.6944892e+00  -4.7757238e+00  -4.8635278e+00  -4.9564013e+00  -5.0328255e+00  -5.1120709e+00  -5.1951906e+00  -5.2702848e+00  -5.3581686e+00  -5.4786695e+00  -5.5920806e+00  -5.6659002e+00  -5.7274662e+00  -5.8228651e+00  -5.9509896e+00  -6.0813302e+00  -6.1891873e+00  -6.2848687e+00  -6.3846682e+00  -6.4955428e+00  -6.6250791e+00  -6.7541901e+00  -6.8782144e+00  -6.9878235e+00  -7.0645810e+00  -7.1184621e+00  -7.1793684e+00  -7.2757366e+00  -7.3978410e+00  -7.5202372e+00  -7.6283959e+00  -7.7229105e+00  -7.8223699e+00  -7.9113768e+00  -7.9937792e+00  -8.1005748e+00  -8.2338711e+00  -8.3664562e+00  -8.4702675e+00  -8.5559161e+00  -8.6397121e+00  -8.7028549e+00  -8.7594078e+00  -8.8540862e+00  -8.9950005e+00  -9.1446105e+00  -9.2613503e+00  -9.3585441e+00  -9.4523716e+00  -9.5312727e+00  -9.6129698e+00
3.9364915e-01   2.5700835e-01   1.0765005e-01  -3.2486944e-02  -1.6580929e-01  -2.8331625e-01  -3.7726039e-01  -4.4877213e-01  -5.2636971e-01  -6.2896652e-01  -7.3962135e-01  -8.4734479e-01  -9.6472861e-01  -1.1000088e+00  -1.2329186e+00  -1.3473298e+00  -1.4385967e+00  -1.5038529e+00  -1.5647453e+00  -1.6457880e+00  -1.7543109e+00  -1.8855747e+00  -2.0126549e+00  -2.1005274e+00  -2.1615365e+00  -2.2275438e+00  -2.3076429e+00  -2.3944997e+00  -2.4841104e+00  -2.5733183e+00  -2.6513033e+00  -2.7204693e+00  -2.7860775e+00  -2.8647497e+00  -2.9860111e+00  -3.1453843e+00  -3.2984037e+00  -3.4170170e+00  -3.5153281e+00  -3.6090544e+00  -3.6887520e+00  -3.7666838e+00  -3.8567953e+00  -3.9563089e+00  -4.0732627e+00  -4.2203395e+00  -4.3796515e+00  -4.5268604e+00  -4.6394074e+00  -4.7204567e+00  -4.7904415e+00  -4.8636509e+00  -4.9490985e+00  -5.0272956e+00  -5.1043662e+00  -5.1766114e+00  -5.2488745e+00  -5.3513339e+00  -5.4903895e+00  -5.6101158e+00  -5.6762621e+00  -5.7187310e+00  -5.7913007e+00  -5.9059376e+00  -6.0349152e+00  -6.1479987e+00  -6.2568651e+00  -6.3746962e+00  -6.4956341e+00  -6.6262208e+00  -6.7561395e+00  -6.8777272e+00  -6.9831099e+00  -7.0559649e+00  -7.1026458e+00  -7.1545342e+00  -7.2431281e+00  -7.3678684e+00  -7.5051703e+00  -7.6296768e+00  -7.7292308e+00  -7.8199700e+00  -7.8860180e+00  -7.9424117e+00  -8.0371387e+00  -8.1794369e+00  -8.3377569e+00  -8.4691106e+00  -8.5652305e+00  -8.6308088e+00  -8.6698608e+00  -8.7213604e+00  -8.8309699e+00  -8.9914110e+00  -9.1460852e+00  -9.2585668e+00  -9.3442555e+00  -9.4226596e+00  -9.4920533e+00  -9.5710250e+00
3.5927900e-01   2.3296881e-01   1.0551579e-01  -1.2214352e-02  -1.3341898e-01  -2.5153504e-01  -3.6046027e-01  -4.5738243e-01  -5.6174925e-01  -6.7588955e-01  -7.7513034e-01  -8.5342319e-01  -9.4005992e-01  -1.0518830e+00  -1.1849523e+00  -1.3280352e+00  -1.4519971e+00  -1.5238676e+00  -1.5648965e+00  -1.6321824e+00  -1.7536727e+00  -1.9076116e+00  -2.0393084e+00  -2.1132195e+00  -2.1615441e+00  -2.2225887e+00  -2.3051304e+00  -2.4062601e+00  -2.5095291e+00  -2.6034050e+00  -2.6797128e+00  -2.7427747e+00  -2.7986231e+00  -2.8721213e+00  -2.9988454e+00  -3.1648394e+00  -3.3191769e+00  -3.4336110e+00  -3.5320013e+00  -3.6409845e+00  -3.7445448e+00  -3.8305825e+00  -3.9002713e+00  -3.9665117e+00  -4.0589260e+00  -4.1936368e+00  -4.3569358e+00  -4.5229538e+00  -4.6526711e+00  -4.7373696e+00  -4.8016838e+00  -4.8682460e+00  -4.9520874e+00  -5.0374559e+00  -5.1184807e+00  -5.1911112e+00  -5.2663046e+00  -5.3707105e+00  -5.5067871e+00  -5.6282609e+00  -5.7047007e+00  -5.7526837e+00  -5.8168491e+00  -5.9216142e+00  -6.0452709e+00  -6.1531177e+00  -6.2514906e+00  -6.3558612e+00  -6.4623789e+00  -6.5825789e+00  -6.7154840e+00  -6.8484050e+00  -6.9731533e+00  -7.0702128e+00  -7.1281819e+00  -7.1732118e+00  -7.2459654e+00  -7.3620156e+00  -7.5011365e+00  -7.6309962e+00  -7.7252240e+00  -7.7955816e+00  -7.8416104e+00  -7.8913267e+00  -7.9858453e+00  -8.1322668e+00  -8.3075699e+00  -8.4717528e+00  -8.5908903e+00  -8.6493779e+00  -8.6719564e+00  -8.7165744e+00  -8.8292151e+00  -8.9970052e+00  -9.1497678e+00  -9.2559866e+00  -9.3296666e+00  -9.3950175e+00  -9.4612651e+00  -9.5398107e+00
3.3905849e-01   2.3487255e-01   1.3206344e-01   2.5876159e-02  -9.6751482e-02  -2.1761554e-01  -3.2560783e-01  -4.2962442e-01  -5.5223036e-01  -6.7682269e-01  -7.7262972e-01  -8.4409418e-01  -9.2987383e-01  -1.0343085e+00  -1.1651183e+00  -1.3231030e+00  -1.4627951e+00  -1.5330665e+00  -1.5562475e+00  -1.6064394e+00  -1.7273062e+00  -1.8986794e+00  -2.0490396e+00  -2.1250386e+00  -2.1628279e+00  -2.2172131e+00  -2.3005023e+00  -2.4060933e+00  -2.5115689e+00  -2.6030409e+00  -2.6760666e+00  -2.7415026e+00  -2.8044182e+00  -2.8806147e+00  -3.0068408e+00  -3.1668353e+00  -3.3149101e+00  -3.4347076e+00  -3.5510000e+00  -3.6902538e+00  -3.8297235e+00  -3.9347801e+00  -3.9957813e+00  -4.0350682e+00  -4.0947376e+00  -4.1981892e+00  -4.3462490e+00  -4.5152595e+00  -4.6505541e+00  -4.7305802e+00  -4.7896336e+00  -4.8624627e+00  -4.9583302e+00  -5.0529102e+00  -5.1343025e+00  -5.2091962e+00  -5.2862751e+00  -5.3793138e+00  -5.4965854e+00  -5.6185118e+00  -5.7234543e+00  -5.8069514e+00  -5.8916087e+00  -6.0031963e+00  -6.1229638e+00  -6.2128553e+00  -6.2786250e+00  -6.3495203e+00  -6.4325460e+00  -6.5402808e+00  -6.6753140e+00  -6.8213750e+00  -6.9671465e+00  -7.0920418e+00  -7.1716602e+00  -7.2204156e+00  -7.2817301e+00  -7.3816468e+00  -7.5095045e+00  -7.6389709e+00  -7.7317148e+00  -7.7867824e+00  -7.8196837e+00  -7.8680980e+00  -7.9628714e+00  -8.1080869e+00  -8.2867288e+00  -8.4679389e+00  -8.6020298e+00  -8.6644708e+00  -8.6880479e+00  -8.7322439e+00  -8.8443111e+00  -9.0118037e+00  -9.1563425e+00  -9.2514129e+00  -9.3104803e+00  -9.3594422e+00  -9.4153356e+00  -9.4856015e+00
3.2800037e-01   2.4655951e-01   1.5756578e-01   4.7578974e-02  -8.7185843e-02  -2.1457490e-01  -3.1210410e-01  -4.0247824e-01  -5.2016244e-01  -6.4190969e-01  -7.3793279e-01  -8.2013267e-01  -9.2690733e-01  -1.0449743e+00  -1.1806249e+00  -1.3401701e+00  -1.4785577e+00  -1.5521368e+00  -1.5789074e+00  -1.6195870e+00  -1.7195292e+00  -1.8809861e+00  -2.0392895e+00  -2.1225530e+00  -2.1595943e+00  -2.2175543e+00  -2.3074073e+00  -2.4199594e+00  -2.5338834e+00  -2.6288673e+00  -2.6979823e+00  -2.7592977e+00  -2.8240237e+00  -2.8964182e+00  -3.0083329e+00  -3.1512566e+00  -3.2927198e+00  -3.4277341e+00  -3.5687358e+00  -3.7342669e+00  -3.8990327e+00  -4.0213073e+00  -4.0940687e+00  -4.1372906e+00  -4.1808469e+00  -4.2508981e+00  -4.3661277e+00  -4.5143019e+00  -4.6429641e+00  -4.7238630e+00  -4.7885248e+00  -4.8690249e+00  -4.9638134e+00  -5.0477993e+00  -5.1157338e+00  -5.1877914e+00  -5.2670037e+00  -5.3533835e+00  -5.4605636e+00  -5.5894734e+00  -5.7243992e+00  -5.8476547e+00  -5.9618575e+00  -6.0823725e+00  -6.1954330e+00  -6.2703644e+00  -6.3196577e+00  -6.3785030e+00  -6.4523424e+00  -6.5464540e+00  -6.6686343e+00  -6.8062944e+00  -6.9496126e+00  -7.0822197e+00  -7.1847056e+00  -7.2577263e+00  -7.3268179e+00  -7.4167523e+00  -7.5304674e+00  -7.6566605e+00  -7.7557374e+00  -7.8105406e+00  -7.8418858e+00  -7.8913216e+00  -7.9844624e+00  -8.1206298e+00  -8.2854333e+00  -8.4574525e+00  -8.5870849e+00  -8.6538446e+00  -8.6858328e+00  -8.7317673e+00  -8.8432299e+00  -9.0087153e+00  -9.1479657e+00  -9.2357435e+00  -9.2834739e+00  -9.3196021e+00  -9.3675701e+00  -9.4338899e+00
2.9286274e-01   2.3209304e-01   1.5594727e-01   4.8182221e-02  -9.3659317e-02  -2.3351728e-01  -3.2893082e-01  -4.0604065e-01  -5.0906068e-01  -6.1637830e-01  -7.0720676e-01  -7.9554941e-01  -9.1066773e-01  -1.0362282e+00  -1.1743513e+00  -1.3300358e+00  -1.4723160e+00  -1.5728363e+00  -1.6286533e+00  -1.6726686e+00  -1.7443931e+00  -1.8735583e+00  -2.0154922e+00  -2.0959879e+00  -2.1399381e+00  -2.2096265e+00  -2.3066128e+00  -2.4294825e+00  -2.5640695e+00  -2.6795548e+00  -2.7615878e+00  -2.8215514e+00  -2.8778905e+00  -2.9386260e+00  -3.0291558e+00  -3.1494539e+00  -3.2811800e+00  -3.4212912e+00  -3.5701618e+00  -3.7434451e+00  -3.9126355e+00  -4.0398049e+00  -4.1342875e+00  -4.2083704e+00  -4.2620023e+00  -4.3125818e+00  -4.3902531e+00  -4.5024573e+00  -4.6177708e+00  -4.7144048e+00  -4.8074400e+00  -4.8988672e+00  -4.9737991e+00  -5.0247811e+00  -5.0688987e+00  -5.1341103e+00  -5.2176538e+00  -5.3109539e+00  -5.4264086e+00  -5.5673360e+00  -5.7181198e+00  -5.8605207e+00  -5.9851037e+00  -6.0991629e+00  -6.2008831e+00  -6.2772583e+00  -6.3481439e+00  -6.4318758e+00  -6.5117913e+00  -6.5843724e+00  -6.6698937e+00  -6.7734879e+00  -6.8990625e+00  -7.0301704e+00  -7.1531714e+00  -7.2625644e+00  -7.3617418e+00  -7.4575520e+00  -7.5560838e+00  -7.6686304e+00  -7.7729517e+00  -7.8405058e+00  -7.8812727e+00  -7.9375333e+00  -8.0352405e+00  -8.1614613e+00  -8.3030540e+00  -8.4467205e+00  -8.5542346e+00  -8.6178990e+00  -8.6616981e+00  -8.7204164e+00  -8.8384364e+00  -8.9998282e+00  -9.1332825e+00  -9.2174247e+00  -9.2635813e+00  -9.3076324e+00  -9.3731630e+00  -9.4557711e+00
2.3583413e-01   1.9617317e-01   1.4443670e-01   5.8985256e-02  -7.8153358e-02  -2.3650176e-01  -3.4604692e-01  -4.2633507e-01  -5.2523381e-01  -6.1970472e-01  -7.0200310e-01  -7.8270785e-01  -8.7607382e-01  -9.8186663e-01  -1.1086670e+00  -1.2605184e+00  -1.4194111e+00  -1.5589161e+00  -1.6506088e+00  -1.7124367e+00  -1.7755305e+00  -1.8776099e+00  -1.9914866e+00  -2.0634546e+00  -2.1220767e+00  -2.2063629e+00  -2.3064302e+00  -2.4353180e+00  -2.5810772e+00  -2.7081889e+00  -2.8066367e+00  -2.8727711e+00  -2.9226314e+00  -2.9782017e+00  -3.0576507e+00  -3.1623294e+00  -3.2828399e+00  -3.4145732e+00  -3.5591217e+00  -3.7310506e+00  -3.8904095e+00  -4.0063802e+00  -4.1124364e+00  -4.2166927e+00  -4.2884846e+00  -4.3312561e+00  -4.3801300e+00  -4.4615842e+00  -4.5666326e+00  -4.6883888e+00  -4.8230698e+00  -4.9328701e+00  -4.9902038e+00  -5.0085916e+00  -5.0346343e+00  -5.1003659e+00  -5.1972098e+00  -5.3069407e+00  -5.4345433e+00  -5.5824245e+00  -5.7332671e+00  -5.8696684e+00  -5.9720908e+00  -6.0547054e+00  -6.1398295e+00  -6.2311372e+00  -6.3414687e+00  -6.4589999e+00  -6.5458204e+00  -6.5955000e+00  -6.6424617e+00  -6.7194344e+00  -6.8445950e+00  -6.9874751e+00  -7.1260544e+00  -7.2600020e+00  -7.3850313e+00  -7.4866718e+00  -7.5700094e+00  -7.6674779e+00  -7.7724397e+00  -7.8504000e+00  -7.8966604e+00  -7.9585397e+00  -8.0659764e+00  -8.1885342e+00  -8.3121828e+00  -8.4281778e+00  -8.5125417e+00  -8.5754465e+00  -8.6424883e+00  -8.7349016e+00  -8.8735928e+00  -9.0290732e+00  -9.1448092e+00  -9.2139048e+00  -9.2589073e+00  -9.3287482e+00  -9.4391591e+00  -9.5571468e+00
1.9286107e-01   1.6487469e-01   1.3210903e-01   6.9659017e-02  -5.7691790e-02  -2.2662600e-01  -3.4837589e-01  -4.3821378e-01  -5.4522092e-01  -6.4037687e-01  -7.2041895e-01  -7.8957561e-01  -8.5187072e-01  -9.2677624e-01  -1.0355790e+00  -1.1858323e+00  -1.3632515e+00  -1.5301047e+00  -1.6434461e+00  -1.7233086e+00  -1.7940873e+00  -1.8857011e+00  -1.9807783e+00  -2.0493129e+00  -2.1231770e+00  -2.2187351e+00  -2.3202965e+00  -2.4501162e+00  -2.5902879e+00  -2.7077126e+00  -2.8076470e+00  -2.8774216e+00  -2.9251428e+00  -2.9823620e+00  -3.0631724e+00  -3.1671702e+00  -3.2847862e+00  -3.4082604e+00  -3.5494339e+00  -3.7224281e+00  -3.8728067e+00  -3.9741514e+00  -4.0798364e+00  -4.1980102e+00  -4.2784470e+00  -4.3140606e+00  -4.3430871e+00  -4.4076304e+00  -4.5132146e+00  -4.6616835e+00  -4.8317131e+00  -4.9574222e+00  -5.0051955e+00  -5.0035557e+00  -5.0234785e+00  -5.0999969e+00  -5.2169132e+00  -5.3421976e+00  -5.4722266e+00  -5.6139328e+00  -5.7545047e+00  -5.8784250e+00  -5.9549118e+00  -6.0063551e+00  -6.0795333e+00  -6.1872079e+00  -6.3248422e+00  -6.4575584e+00  -6.5422637e+00  -6.5754699e+00  -6.6012550e+00  -6.6725246e+00  -6.8120319e+00  -6.9731887e+00  -7.1225045e+00  -7.2667065e+00  -7.4004876e+00  -7.4994298e+00  -7.5734159e+00  -7.6660357e+00  -7.7701443e+00  -7.8475598e+00  -7.8883487e+00  -7.9500605e+00  -8.0649817e+00  -8.1875285e+00  -8.3005155e+00  -8.3973523e+00  -8.4673811e+00  -8.5383016e+00  -8.6366511e+00  -8.7684101e+00  -8.9316539e+00  -9.0834967e+00  -9.1774861e+00  -9.2226044e+00  -9.2595692e+00  -9.3513261e+00  -9.5035885e+00  -9.6526798e+00
